99.303174	-2.866341	7.2824785754
99.292607	-2.851703	7.28272534508
100.121534	-3.967938	7.48486824158
100.110943	-3.953309	7.48649776118
100.100353	-3.938681	7.48829079685
100.089764	-3.924052	7.49005804586
100.079174	-3.909423	7.49178616084
100.068585	-3.894793	7.49350424425
100.057997	-3.880164	7.49497976324
100.047408	-3.865534	7.49579206599
100.036821	-3.850905	7.49590707744
100.026233	-3.836275	7.49576830943
100.015646	-3.821645	7.49568362561
100.005059	-3.807015	7.49569157337
99.994473	-3.792385	7.49579411193
99.983886	-3.777755	7.49602669796
99.973301	-3.763124	7.49663249246
99.962715	-3.748494	7.49760978617
99.95213	-3.733863	7.49875185876
99.941545	-3.719232	7.49991116112
99.930961	-3.704602	7.50107403306
99.920377	-3.689971	7.50224926937
99.909793	-3.675339	7.50341726825
99.89921	-3.660708	7.50450554197
99.888627	-3.646077	7.50547007791
99.878044	-3.631445	7.50637875886
99.867462	-3.616813	7.50729196999
99.85688	-3.602182	7.50819394857
99.846298	-3.58755	7.50909442235
99.835717	-3.572918	7.5099923279
99.825136	-3.558286	7.51088581889
99.814555	-3.543653	7.5117951329
99.803975	-3.529021	7.51272546365
99.793395	-3.514388	7.51371103932
99.782815	-3.499756	7.51477927576
99.772236	-3.485123	7.51599783899
99.761656	-3.47049	7.51728669107
99.751078	-3.455857	7.51837610478
99.740499	-3.441224	7.51886066691
99.729921	-3.426591	7.5189702597
99.719343	-3.411957	7.51907137716
99.708766	-3.397324	7.51921448257
99.698189	-3.38269	7.51935499695
99.687612	-3.368056	7.5195222966
99.677035	-3.353423	7.52002073804
99.666459	-3.338789	7.52112748369
99.655883	-3.324155	7.52246834794
99.645307	-3.30952	7.52371232926
99.634732	-3.294886	7.52480976457
99.624157	-3.280252	7.52579424466
99.613582	-3.265617	7.52671492328
99.603008	-3.250983	7.52756795313
99.592434	-3.236348	7.52831821701
99.58186	-3.221713	7.52899040882
99.571286	-3.207078	7.52968493496
99.560713	-3.192443	7.53046981141
99.55014	-3.177808	7.53135839543
99.539568	-3.163173	7.53233545768
99.528995	-3.148537	7.53316003293
99.518423	-3.133902	7.53349810284
99.507851	-3.119266	7.53350345931
99.49728	-3.10463	7.53352658565
99.486709	-3.089994	7.53362219587
99.476138	-3.075359	7.53376292385
99.465567	-3.060723	7.53397043404
99.454997	-3.046086	7.53438048766
99.444427	-3.03145	7.53519291534
99.433857	-3.016814	7.53638917555
99.423287	-3.002177	7.53772217179
99.412718	-2.987541	7.53907458511
99.402149	-2.972904	7.54043945089
99.39158	-2.958267	7.54179828364
99.381012	-2.943631	7.54301740281
99.370444	-2.928994	7.54372042652
99.359876	-2.914357	7.54387558322
99.349308	-2.899719	7.54388553157
99.338741	-2.885082	7.54386783763
99.328174	-2.870445	7.54381845462
99.317607	-2.855807	7.54375280452
99.30704	-2.84117	7.54378869258
100.135975	-3.957393	7.74489844653
100.125384	-3.942764	7.74726939966
100.114794	-3.928136	7.74948635715
100.104204	-3.913507	7.75154649718
100.093615	-3.898878	7.75360954956
100.083026	-3.884249	7.75579154206
100.072437	-3.86962	7.75791979878
100.061849	-3.854991	7.75881591605
100.051261	-3.840361	7.75826664805
100.040673	-3.825732	7.75768696103
100.030086	-3.811102	7.75735126514
100.019499	-3.796472	7.75718631115
100.008912	-3.781842	7.75710311073
99.998326	-3.767212	7.75707614092
99.98774	-3.752582	7.75756814642
99.977155	-3.737951	7.75881681997
99.966569	-3.723321	7.76006033885
99.955985	-3.70869	7.76129711463
99.9454	-3.694059	7.7625070198
99.934816	-3.679429	7.76373422661
99.924232	-3.664798	7.76499028455
99.913649	-3.650166	7.76614696332
99.903065	-3.635535	7.76699699867
99.892483	-3.620904	7.76783050914
99.8819	-3.606272	7.76868728316
99.871318	-3.591641	7.76956130617
99.860736	-3.577009	7.77044060292
99.850155	-3.562377	7.77132115934
99.839574	-3.547745	7.77221982695
99.828993	-3.533113	7.773161383
99.818412	-3.518481	7.77413263861
99.807832	-3.503848	7.77519076587
99.797252	-3.489216	7.7763677711
99.786673	-3.474583	7.77777047821
99.776094	-3.45995	7.77942997719
99.765515	-3.445317	7.7809897236
99.754936	-3.430685	7.78104072989
99.744358	-3.416051	7.7807002318
99.73378	-3.401418	7.78051240812
99.723203	-3.386785	7.78042430681
99.712625	-3.372151	7.78027710815
99.702048	-3.357518	7.77998460688
99.691472	-3.342884	7.78007554817
99.680895	-3.32825	7.78167094784
99.670319	-3.313616	7.78336702261
99.659744	-3.298982	7.78481014436
99.649168	-3.284348	7.78602540946
99.638593	-3.269714	7.7871164372
99.628018	-3.25508	7.78814006014
99.617444	-3.240445	7.78915271031
99.606869	-3.225811	7.7899407501
99.596295	-3.211176	7.79063519771
99.585722	-3.196541	7.79141474521
99.575148	-3.181906	7.79229606118
99.564575	-3.167271	7.79333789292
99.554003	-3.152636	7.7945709252
99.54343	-3.138001	7.79583618474
99.532858	-3.123365	7.79587793163
99.522286	-3.10873	7.79554262288
99.511714	-3.094094	7.79535074533
99.501143	-3.079459	7.79526806482
99.490572	-3.064823	7.7952324979
99.480001	-3.050187	7.795181832
99.469431	-3.035551	7.79520854228
99.458861	-3.020915	7.79603408936
99.448291	-3.006279	7.79749204164
99.437721	-2.991643	7.79894783856
99.427152	-2.977006	7.80038710259
99.416583	-2.96237	7.80182427473
99.406014	-2.947733	7.80332253899
99.395445	-2.933096	7.80485944708
99.384877	-2.918459	7.80557986687
99.374309	-2.903823	7.80549436289
99.363741	-2.889186	7.80543116137
99.353174	-2.874548	7.80540639631
99.342607	-2.859911	7.80532663573
99.33204	-2.845274	7.80513379063
99.321473	-2.830637	7.80483014808
100.150415	-3.946848	8.00634279102
100.139824	-3.932219	8.00872012667
100.129234	-3.917591	8.01095507188
100.118644	-3.902962	8.01304832819
100.108055	-3.888334	8.01516114602
100.097466	-3.873705	8.01747434618
100.086877	-3.859076	8.01997686179
100.076288	-3.844446	8.0209249582
100.0657	-3.829817	8.01995124831
100.055113	-3.815188	8.01923539118
100.044525	-3.800558	8.01882678012
100.033938	-3.785929	8.01862997248
100.023351	-3.771299	8.01855374041
100.012765	-3.756669	8.01858412057
100.002179	-3.742039	8.01911002687
99.991594	-3.727409	8.0202559364
99.981008	-3.712778	8.02148430116
99.970423	-3.698148	8.02269272647
99.959839	-3.683517	8.0239134056
99.949254	-3.668886	8.02513951285
99.938671	-3.654256	8.02641182468
99.928087	-3.639625	8.02757301759
99.917504	-3.624993	8.02840457663
99.906921	-3.610362	8.0292115654
99.896338	-3.595731	8.03005316186
99.885756	-3.581099	8.03093266807
99.875174	-3.566468	8.03180088898
99.864593	-3.551836	8.03267830599
99.854011	-3.537204	8.03356295526
99.84343	-3.522572	8.03450668009
99.83285	-3.50794	8.03548906755
99.82227	-3.493308	8.03653686348
99.81169	-3.478676	8.03771098177
99.80111	-3.464043	8.03909334424
99.790531	-3.449411	8.04072399896
99.779952	-3.434778	8.04224078632
99.769373	-3.420145	8.04234367287
99.758795	-3.405512	8.04200597739
99.748217	-3.390879	8.04182461509
99.737639	-3.376246	8.04173270347
99.727062	-3.361613	8.04160539558
99.716485	-3.346979	8.04136941553
99.705908	-3.332346	8.04153056511
99.695331	-3.317712	8.0430260842
99.684755	-3.303078	8.04470625692
99.674179	-3.288444	8.04614090613
99.663604	-3.27381	8.04737821927
99.653029	-3.259176	8.04848449651
99.642454	-3.244542	8.04952515163
99.631879	-3.229908	8.05052576378
99.621305	-3.215273	8.05139084041
99.610731	-3.200639	8.05216001635
99.600157	-3.186004	8.05299909163
99.589583	-3.171369	8.05394126402
99.57901	-3.156734	8.05501946051
99.568437	-3.142099	8.05621965169
99.557865	-3.127464	8.05730065539
99.547293	-3.112829	8.05749596129
99.536721	-3.098194	8.05724233187
99.526149	-3.083558	8.05703959173
99.515577	-3.068923	8.05689687632
99.505006	-3.054287	8.05679611897
99.494435	-3.039651	8.05667328771
99.483865	-3.025016	8.05659069412
99.473295	-3.01038	8.05738602516
99.462725	-2.995744	8.05883660333
99.452155	-2.981107	8.06028610117
99.441585	-2.966471	8.06168714928
99.431016	-2.951835	8.06309758225
99.420447	-2.937198	8.06453515794
99.409879	-2.922562	8.06588948105
99.39931	-2.907925	8.06663686898
99.388742	-2.893288	8.06683220206
99.378174	-2.878652	8.06690265784
99.367607	-2.864015	8.06697681636
99.357039	-2.849378	8.06698235045
99.346472	-2.83474	8.06689863224
99.335905	-2.820103	8.06672965805
100.164855	-3.936302	8.2692603004
100.154264	-3.921674	8.2708798167
100.143674	-3.907046	8.27270802267
100.133084	-3.892417	8.27454078821
100.122495	-3.877789	8.27640622696
100.111905	-3.86316	8.27834094033
100.101316	-3.848531	8.28011079789
100.090728	-3.833902	8.28090361649
100.08014	-3.819273	8.28069999344
100.069552	-3.804644	8.28031317586
100.058964	-3.790014	8.28008349848
100.048377	-3.775385	8.28002018165
100.03779	-3.760755	8.28010223742
100.027204	-3.746125	8.28037582356
100.016618	-3.731496	8.28096685156
100.006032	-3.716865	8.28190528103
99.995447	-3.702235	8.28300219233
99.984862	-3.687605	8.28413926904
99.974277	-3.672975	8.28528727393
99.963693	-3.658344	8.28646691017
99.953109	-3.643713	8.28763659625
99.942525	-3.629082	8.28870543381
99.931942	-3.614452	8.28963211761
99.921359	-3.59982	8.29051626814
99.910776	-3.585189	8.29139334677
99.900194	-3.570558	8.29228817579
99.889612	-3.555927	8.2931752019
99.87903	-3.541295	8.29405678692
99.868449	-3.526663	8.29494801859
99.857868	-3.512031	8.29584747731
99.847287	-3.497399	8.29676285411
99.836707	-3.482767	8.29773597632
99.826127	-3.468135	8.29879752609
99.815547	-3.453503	8.29998236675
99.804967	-3.43887	8.30125155936
99.794388	-3.424238	8.30228228944
99.78381	-3.409605	8.30276676752
99.773231	-3.394972	8.30289443297
99.762653	-3.38034	8.30299917902
99.752075	-3.365707	8.3031501903
99.741498	-3.351073	8.30331824687
99.730921	-3.33644	8.30352048138
99.720344	-3.321807	8.3040746982
99.709767	-3.307173	8.30517046363
99.699191	-3.29254	8.30648482434
99.688615	-3.277906	8.307733423
99.678039	-3.263272	8.30885168224
99.667464	-3.248638	8.30988524037
99.656889	-3.234004	8.31086303344
99.646314	-3.21937	8.31179724521
99.63574	-3.204736	8.31268466007
99.625166	-3.190101	8.31355695768
99.614592	-3.175467	8.31445466267
99.604018	-3.160832	8.31542444315
99.593445	-3.146197	8.31646060906
99.582872	-3.131563	8.31747467695
99.572299	-3.116928	8.31826973825
99.561727	-3.102293	8.31863515661
99.551155	-3.087657	8.31867520182
99.540583	-3.073022	8.31859628802
99.530011	-3.058387	8.31850953431
99.51944	-3.043751	8.31845690853
99.508869	-3.029116	8.31844263595
99.498299	-3.01448	8.31865137874
99.487728	-2.999844	8.31933125055
99.477158	-2.985208	8.32044276407
99.466588	-2.970572	8.32170508014
99.456019	-2.955936	8.32300705824
99.445449	-2.9413	8.32429632783
99.43488	-2.926664	8.32556335207
99.424311	-2.912027	8.32668898378
99.413743	-2.897391	8.32749353031
99.403175	-2.882754	8.32799129983
99.392607	-2.868117	8.32832875225
99.382039	-2.85348	8.32859976265
99.371472	-2.838844	8.3288204459
99.360905	-2.824207	8.32900571052
99.350338	-2.809569	8.32927257086
100.179295	-3.925756	8.5321087177
100.168704	-3.911128	8.53324382785
100.158114	-3.8965	8.53459459561
100.147524	-3.881872	8.5360135475
100.136934	-3.867244	8.53745731227
100.126345	-3.852615	8.53889119801
100.115756	-3.837986	8.54009728072
100.105167	-3.823358	8.54080565316
100.094579	-3.808729	8.54105317422
100.083991	-3.7941	8.54109875739
100.073403	-3.77947	8.5411635093
100.062816	-3.764841	8.54132104932
100.052229	-3.750211	8.54160126566
100.041642	-3.735582	8.54202965236
100.031056	-3.720952	8.54268502677
100.02047	-3.706322	8.54353765343
100.009885	-3.691692	8.54453169749
99.9993	-3.677062	8.54558544271
99.988715	-3.662432	8.54666122369
99.978131	-3.647801	8.54776116559
99.967546	-3.633171	8.54882167038
99.956963	-3.61854	8.54986166178
99.946379	-3.603909	8.5508284595
99.935796	-3.589278	8.55177000482
99.925213	-3.574647	8.55270180155
99.914631	-3.560016	8.55363870801
99.904049	-3.545385	8.55455786407
99.893467	-3.530754	8.55544733566
99.882886	-3.516122	8.55632016892
99.872305	-3.50149	8.55715951483
99.861724	-3.486859	8.55797279811
99.851143	-3.472227	8.55880413168
99.840563	-3.457595	8.55968842881
99.829983	-3.442963	8.56062817873
99.819404	-3.42833	8.56159913131
99.808825	-3.413698	8.56244759874
99.798246	-3.399065	8.56310607658
99.787667	-3.384433	8.56361710962
99.777089	-3.3698	8.56411830288
99.766511	-3.355167	8.56463544405
99.755934	-3.340534	8.56518165914
99.745356	-3.325901	8.56577124112
99.734779	-3.311268	8.56652348123
99.724203	-3.296634	8.56747784443
99.713626	-3.282001	8.56849091932
99.70305	-3.267367	8.56949666653
99.692474	-3.252734	8.57042759904
99.681899	-3.2381	8.57132648019
99.671324	-3.223466	8.57220080677
99.660749	-3.208832	8.57306983933
99.650174	-3.194198	8.5739463592
99.6396	-3.179564	8.57485809018
99.629026	-3.164929	8.57581720019
99.618453	-3.150295	8.57681184853
99.607879	-3.13566	8.57780231825
99.597306	-3.121025	8.57872261216
99.586733	-3.106391	8.57943193301
99.576161	-3.091756	8.57987569332
99.565589	-3.077121	8.580068078
99.555017	-3.062486	8.58011515204
99.544445	-3.04785	8.5801180723
99.533874	-3.033215	8.5801344142
99.523303	-3.01858	8.58023689532
99.512732	-3.003944	8.5805480317
99.502161	-2.989308	8.5811649407
99.491591	-2.974673	8.5820702003
99.481021	-2.960037	8.58315728689
99.470452	-2.945401	8.58432639777
99.459882	-2.930765	8.5854921277
99.449313	-2.916129	8.58662601152
99.438744	-2.901492	8.58765354631
99.428176	-2.886856	8.58850793483
99.417607	-2.872219	8.589183481
99.407039	-2.857583	8.5897459804
99.396471	-2.842946	8.59025460706
99.385904	-2.828309	8.59073985837
99.375337	-2.813672	8.5912201966
99.36477	-2.799035	8.59176930212
100.193735	-3.915211	8.79472645817
100.183144	-3.900583	8.79553577361
100.172553	-3.885955	8.79646242105
100.161963	-3.871327	8.79745899599
100.151373	-3.856698	8.79847800419
100.140784	-3.84207	8.79946024685
100.130194	-3.827441	8.80031139716
100.119606	-3.812813	8.80097196659
100.109017	-3.798184	8.80143322877
100.098429	-3.783555	8.80179743089
100.087842	-3.768926	8.80215360981
100.077254	-3.754297	8.80253050966
100.066667	-3.739668	8.80298621617
100.056081	-3.725038	8.80356530589
100.045494	-3.710408	8.8042648373
100.034908	-3.695779	8.80509561674
100.024323	-3.681149	8.80604010045
100.013738	-3.666519	8.80703094345
100.003153	-3.651889	8.80803772217
99.992568	-3.637259	8.80904190319
99.981984	-3.622628	8.81005543043
99.9714	-3.607998	8.81104417188
99.960817	-3.593367	8.81203793753
99.950233	-3.578736	8.81301440504
99.93965	-3.564105	8.81400246117
99.929068	-3.549474	8.81499571101
99.918486	-3.534843	8.81596198362
99.907904	-3.520212	8.81687378164
99.897322	-3.505581	8.81770382735
99.886741	-3.490949	8.8184667805
99.87616	-3.476317	8.81916277751
99.86558	-3.461686	8.81982964126
99.854999	-3.447054	8.82049427149
99.844419	-3.432422	8.82119230633
99.83384	-3.41779	8.82193100532
99.823261	-3.403158	8.82269262692
99.812682	-3.388525	8.82349155654
99.802103	-3.373893	8.8243243304
99.791525	-3.35926	8.82522075599
99.780947	-3.344627	8.8261485291
99.770369	-3.329995	8.8270751364
99.759792	-3.315362	8.82801227405
99.749214	-3.300729	8.82890900257
99.738638	-3.286095	8.82979086286
99.728061	-3.271462	8.83058940088
99.717485	-3.256829	8.83134100755
99.706909	-3.242195	8.83206551585
99.696334	-3.227561	8.83279185654
99.685758	-3.212928	8.83351527723
99.675183	-3.198294	8.83430572599
99.664609	-3.18366	8.83517691621
99.654034	-3.169026	8.83611147778
99.64346	-3.154391	8.83712551204
99.632887	-3.139757	8.8381657645
99.622313	-3.125123	8.83916594008
99.61174	-3.110488	8.84008198216
99.601167	-3.095854	8.840798698
99.590595	-3.081219	8.84129133576
99.580022	-3.066584	8.84154331766
99.56945	-3.051949	8.8416524266
99.558878	-3.037314	8.84169178388
99.548307	-3.022679	8.84174910672
99.537736	-3.008043	8.84190256526
99.527165	-2.993408	8.84222442255
99.516594	-2.978772	8.84279615648
99.506024	-2.964137	8.84360497587
99.495454	-2.949501	8.84458634436
99.484884	-2.934865	8.84564604673
99.474315	-2.920229	8.84673074366
99.463745	-2.905593	8.84776747357
99.453176	-2.890957	8.84874428761
99.442608	-2.876321	8.84964288454
99.432039	-2.861685	8.85044454468
99.421471	-2.847048	8.85120816131
99.410903	-2.832412	8.85193244908
99.400336	-2.817775	8.85266808186
99.389768	-2.803138	8.85339759409
99.379201	-2.788501	8.85415525777
100.208174	-3.904664	9.05720968258
100.197583	-3.890037	9.05774323315
100.186992	-3.875409	9.05830685155
100.176402	-3.860781	9.05890645417
100.165812	-3.846153	9.05951226852
100.155222	-3.831525	9.06010513922
100.144633	-3.816896	9.06070176373
100.134044	-3.802268	9.06128847731
100.123456	-3.787639	9.06190751302
100.112868	-3.77301	9.062524641
100.10228	-3.758382	9.06311556727
100.091692	-3.743753	9.06370256444
100.081105	-3.729123	9.06432185534
100.070519	-3.714494	9.0649938153
100.059932	-3.699865	9.06574121813
100.049346	-3.685235	9.06660144008
100.03876	-3.670605	9.06752364604
100.028175	-3.655976	9.06846848237
100.01759	-3.641346	9.06941557109
100.007005	-3.626715	9.07035651735
99.996421	-3.612085	9.07129556934
99.985837	-3.597455	9.07224667334
99.975253	-3.582824	9.07323409798
99.96467	-3.568194	9.07425425471
99.954087	-3.553563	9.07530188128
99.943505	-3.538932	9.07636658218
99.932922	-3.524301	9.07739344464
99.92234	-3.50967	9.0783516454
99.911759	-3.495039	9.07917552208
99.901177	-3.480408	9.07981880383
99.890596	-3.465776	9.08035435434
99.880016	-3.451145	9.08082417617
99.869435	-3.436513	9.08126079041
99.858855	-3.421881	9.08171050485
99.848276	-3.407249	9.08223022114
99.837696	-3.392617	9.08289969987
99.827117	-3.377985	9.08382788684
99.816538	-3.363352	9.08499788837
99.80596	-3.34872	9.08630402107
99.795382	-3.334087	9.08767028114
99.784804	-3.319455	9.08902179643
99.774227	-3.304822	9.09030729185
99.763649	-3.290189	9.0913735552
99.753073	-3.275556	9.09218024474
99.742496	-3.260923	9.09274804854
99.73192	-3.24629	9.09322978306
99.721344	-3.231656	9.09371226479
99.710768	-3.217023	9.09421823652
99.700193	-3.202389	9.09480340185
99.689618	-3.187755	9.09549021199
99.679043	-3.173122	9.09631719803
99.668469	-3.158488	9.09731260452
99.657894	-3.143854	9.09838831787
99.64732	-3.129219	9.09951147351
99.636747	-3.114585	9.10060394939
99.626174	-3.099951	9.10158856786
99.615601	-3.085316	9.10237754692
99.605028	-3.070682	9.10288293948
99.594456	-3.056047	9.10314847342
99.583883	-3.041412	9.10323618444
99.573312	-3.026777	9.10327305827
99.56274	-3.012142	9.10329717842
99.552169	-2.997507	9.1034087069
99.541598	-2.982872	9.10368916824
99.531027	-2.968236	9.10422651003
99.520457	-2.953601	9.10501092385
99.509886	-2.938965	9.10595414498
99.499317	-2.924329	9.10698456276
99.488747	-2.909694	9.10799101893
99.478178	-2.895058	9.10898331555
99.467609	-2.880422	9.10993341372
99.45704	-2.865786	9.11085512034
99.446471	-2.851149	9.11177106373
99.435903	-2.836513	9.11268559025
99.425335	-2.821877	9.11361238633
99.414767	-2.80724	9.11457383359
99.4042	-2.792604	9.11556039818
99.393633	-2.777967	9.11652218047
100.222613	-3.894118	9.3196550954
100.212021	-3.879491	9.31990183425
100.201431	-3.864863	9.32012635723
100.19084	-3.850235	9.32034603669
100.18025	-3.835607	9.32057506017
100.169661	-3.820979	9.32081314088
100.159071	-3.806351	9.32111306178
100.148482	-3.791723	9.32163299879
100.137894	-3.777094	9.32241576433
100.127305	-3.762466	9.32327557621
100.116718	-3.747837	9.32413334334
100.10613	-3.733208	9.3249070028
100.095543	-3.718579	9.32563672841
100.084956	-3.70395	9.32636058953
100.07437	-3.689321	9.32716719191
100.063783	-3.674691	9.32806621053
100.053198	-3.660062	9.32901635459
100.042612	-3.645432	9.32993927319
100.032027	-3.630802	9.33083039574
100.021442	-3.616172	9.3316819352
100.010858	-3.601542	9.33253560578
100.000274	-3.586912	9.33343322108
99.98969	-3.572282	9.33441533682
99.979107	-3.557651	9.33548680614
99.968524	-3.543021	9.33658992261
99.957941	-3.52839	9.33773050634
99.947358	-3.513759	9.33887230592
99.936776	-3.499128	9.33993363336
99.926195	-3.484497	9.34075888684
99.915613	-3.469866	9.34126090281
99.905032	-3.455235	9.34158059838
99.894451	-3.440603	9.34183024028
99.883871	-3.425972	9.34203541757
99.873291	-3.41134	9.34220719472
99.862711	-3.396708	9.34241971913
99.852132	-3.382076	9.34294376216
99.841552	-3.367444	9.34402501906
99.830974	-3.352812	9.3456188904
99.820395	-3.33818	9.34738159904
99.809817	-3.323547	9.34920557154
99.799239	-3.308915	9.35102683675
99.788661	-3.294282	9.3527450533
99.778084	-3.279649	9.35405883645
99.767507	-3.265016	9.3547144734
99.75693	-3.250383	9.35493787115
99.746354	-3.23575	9.3550930351
99.735778	-3.221117	9.35530960683
99.725202	-3.206484	9.35560263037
99.714627	-3.19185	9.35599757716
99.704052	-3.177217	9.35653266848
99.693477	-3.162583	9.35734464414
99.682902	-3.147949	9.35842653121
99.672328	-3.133315	9.35964356753
99.661754	-3.118681	9.36088002288
99.65118	-3.104047	9.36209401769
99.640607	-3.089413	9.36323695733
99.630034	-3.074779	9.3641506517
99.619461	-3.060144	9.36467828125
99.608889	-3.04551	9.36485211879
99.598316	-3.030875	9.36486113365
99.587744	-3.01624	9.36482473024
99.577173	-3.001605	9.36478484182
99.566601	-2.98697	9.36477490841
99.55603	-2.972335	9.36494536488
99.545459	-2.9577	9.3654460436
99.534889	-2.943064	9.36630157112
99.524319	-2.928429	9.36730768289
99.513749	-2.913793	9.36833488626
99.503179	-2.899158	9.36931088855
99.49261	-2.884522	9.37025156655
99.48204	-2.869886	9.37115143148
99.471471	-2.85525	9.37208869357
99.460903	-2.840614	9.37309723875
99.450334	-2.825978	9.37413435009
99.439766	-2.811342	9.37523427166
99.429199	-2.796705	9.37643273429
99.418631	-2.782069	9.37768974375
99.408064	-2.767432	9.37893049825
100.237051	-3.883571	9.58213718175
100.22646	-3.868944	9.58203879323
100.215869	-3.854317	9.58189926952
100.205278	-3.839689	9.58179974116
100.194688	-3.825061	9.5816932861
100.184099	-3.810433	9.58154680211
100.173509	-3.795805	9.58146667368
100.16292	-3.781177	9.58190161157
100.152331	-3.766549	9.58296198528
100.141743	-3.75192	9.5841749896
100.131155	-3.737292	9.58525967584
100.120567	-3.722663	9.58619852845
100.10998	-3.708034	9.58701491571
100.099393	-3.693405	9.58774459837
100.088807	-3.678776	9.5885703334
100.07822	-3.664147	9.58956340459
100.067635	-3.649518	9.59056397678
100.057049	-3.634888	9.59147206847
100.046464	-3.620259	9.59229415643
100.035879	-3.605629	9.59304779697
100.025294	-3.590999	9.59376234946
100.01471	-3.576369	9.59456801378
100.004126	-3.561739	9.59556645054
99.993543	-3.547108	9.59668898766
99.98296	-3.532478	9.59784384968
99.972377	-3.517847	9.59906591919
99.961794	-3.503217	9.60035248343
99.951212	-3.488586	9.60163327677
99.94063	-3.473955	9.60249994278
99.930049	-3.459324	9.60276478174
99.919468	-3.444693	9.60282820403
99.908887	-3.430062	9.60287526441
99.898306	-3.41543	9.60288491496
99.887726	-3.400799	9.60277885792
99.877146	-3.386167	9.60256571445
99.866567	-3.371535	9.60269886442
99.855987	-3.356903	9.60405998558
99.845408	-3.342271	9.606255878
99.83483	-3.327639	9.60849710441
99.824251	-3.313007	9.61070095287
99.813673	-3.298375	9.6129794245
99.803096	-3.283742	9.61531944003
99.792518	-3.269109	9.61705634967
99.781941	-3.254477	9.617329501
99.771365	-3.239844	9.61702374044
99.760788	-3.225211	9.61682519737
99.750212	-3.210578	9.61682198691
99.739636	-3.195945	9.61693730309
99.72906	-3.181311	9.61712224689
99.718485	-3.166678	9.61743262618
99.70791	-3.152044	9.61822596542
99.697336	-3.137411	9.61951805558
99.686761	-3.122777	9.62087950573
99.676187	-3.108143	9.62223675905
99.665613	-3.093509	9.62359248457
99.65504	-3.078875	9.62495997774
99.644467	-3.064241	9.62614389176
99.633894	-3.049606	9.6266326173
99.623321	-3.034972	9.62658944775
99.612749	-3.020337	9.62650447824
99.602177	-3.005703	9.62639687899
99.591605	-2.991068	9.62625851064
99.581034	-2.976433	9.62608535583
99.570462	-2.961798	9.6260065002
99.559892	-2.947163	9.62650179168
99.549321	-2.932528	9.62755208828
99.538751	-2.917893	9.62869418105
99.52818	-2.903257	9.6297437772
99.517611	-2.888622	9.63070697375
99.507041	-2.873986	9.63157667226
99.496472	-2.85935	9.63240604589
99.485903	-2.844715	9.63332063265
99.475334	-2.830079	9.63440622264
99.464766	-2.815443	9.63554930329
99.454197	-2.800807	9.63675376973
99.44363	-2.78617	9.63812869345
99.433062	-2.771534	9.63968005985
99.422494	-2.756898	9.641343332
100.251489	-3.873025	9.8444140234
100.240898	-3.858398	9.84396613615
100.230307	-3.84377	9.84360332064
100.219716	-3.829143	9.84328545673
100.209126	-3.814515	9.84295150306
100.198536	-3.799887	9.8424875288
100.187947	-3.78526	9.84188482338
100.177358	-3.770632	9.84216060457
100.166769	-3.756003	9.84379763229
100.15618	-3.741375	9.84530607992
100.145592	-3.726747	9.84659002629
100.135005	-3.712118	9.84768304329
100.124417	-3.69749	9.84856866419
100.11383	-3.682861	9.84930780876
100.103243	-3.668232	9.85009170234
100.092657	-3.653603	9.85122526832
100.082071	-3.638973	9.85223660212
100.071486	-3.624344	9.85310992162
100.0609	-3.609715	9.85385019702
100.050315	-3.595085	9.85450496562
100.039731	-3.580455	9.85508362048
100.029146	-3.565825	9.85568209377
100.018562	-3.551195	9.85676413149
100.007979	-3.536565	9.85789288398
99.997396	-3.521935	9.8590431155
99.986813	-3.507305	9.8602710485
99.97623	-3.492674	9.86164925247
99.965648	-3.478044	9.86319700699
99.955066	-3.463413	9.86427427574
99.944484	-3.448782	9.86408876161
99.933903	-3.434151	9.86398450223
99.923322	-3.41952	9.86395747284
99.912741	-3.404889	9.86389878703
99.902161	-3.390257	9.86369736638
99.891581	-3.375626	9.86320889515
99.881001	-3.360994	9.86253386152
99.870422	-3.346362	9.86455722052
99.859843	-3.33173	9.86724324554
99.849264	-3.317098	9.86971723737
99.838686	-3.302466	9.8721117031
99.828108	-3.287834	9.87460845512
99.81753	-3.273202	9.87735319448
99.806952	-3.258569	9.88004652926
99.796375	-3.243937	9.87937858521
99.785798	-3.229304	9.87866535543
99.775222	-3.214671	9.87830697755
99.764646	-3.200038	9.87821267294
99.75407	-3.185405	9.8782635356
99.743494	-3.170772	9.87836059846
99.732919	-3.156139	9.87849186282
99.722344	-3.141505	9.87928805069
99.711769	-3.126872	9.88074203352
99.701194	-3.112238	9.88217585152
99.69062	-3.097605	9.88357628734
99.680046	-3.082971	9.88499227964
99.669473	-3.068337	9.88647114603
99.658899	-3.053703	9.88795290369
99.648326	-3.039069	9.88832160226
99.637754	-3.024434	9.88819376152
99.627181	-3.0098	9.88808392144
99.616609	-2.995165	9.88799962076
99.606037	-2.980531	9.88784156549
99.595466	-2.965896	9.88756912968
99.584894	-2.951261	9.88715564074
99.574323	-2.936626	9.88765671264
99.563753	-2.921991	9.88902495622
99.553182	-2.907356	9.8902392228
99.542612	-2.892721	9.89128931218
99.532042	-2.878086	9.89220062389
99.521472	-2.86345	9.89301544955
99.510903	-2.848814	9.89377775561
99.500334	-2.834179	9.89465291261
99.489765	-2.819543	9.8957472371
99.479197	-2.804907	9.89689782421
99.468628	-2.790271	9.89812417995
99.45806	-2.775635	9.89953135001
99.447492	-2.760999	9.90120630865
99.436925	-2.746363	9.90321646883
100.265927	-3.862478	10.1058593084
100.255336	-3.847851	10.1055670862
100.244745	-3.833224	10.1051888548
100.234154	-3.818596	10.1048231836
100.223564	-3.803969	10.1044243188
100.212974	-3.789341	10.1039466947
100.202384	-3.774714	10.1034367203
100.191795	-3.760086	10.1037993329
100.181206	-3.745458	10.1052785589
100.170617	-3.73083	10.1068158005
100.160029	-3.716201	10.1081920708
100.149441	-3.701573	10.1093726878
100.138854	-3.686944	10.110400609
100.128267	-3.672316	10.1112835804
100.11768	-3.657687	10.1121877731
100.107094	-3.643058	10.1131747105
100.096507	-3.628429	10.1140763426
100.085922	-3.6138	10.114868136
100.075336	-3.599171	10.1155275539
100.064751	-3.584541	10.1161066231
100.054167	-3.569912	10.1166255859
100.043582	-3.555282	10.1172316554
100.032998	-3.540652	10.1181191191
100.022414	-3.526022	10.119113901
100.011831	-3.511392	10.1201628681
100.001248	-3.496762	10.1212910961
99.990665	-3.482131	10.1225524658
99.980083	-3.467501	10.1238937474
99.969501	-3.45287	10.1247778928
99.958919	-3.43824	10.124926743
99.948338	-3.423609	10.1249722253
99.937757	-3.408978	10.125067042
99.927176	-3.394347	10.1251418228
99.916596	-3.379715	10.125119722
99.906015	-3.365084	10.1249405051
99.895436	-3.350453	10.1250956503
99.884856	-3.335821	10.1265671456
99.874277	-3.321189	10.128833932
99.863698	-3.306558	10.1311112488
99.85312	-3.291926	10.1333588132
99.842542	-3.277294	10.1356585817
99.831964	-3.262661	10.138013125
99.821386	-3.248029	10.1397396144
99.810809	-3.233397	10.1399765813
99.800232	-3.218764	10.1396460144
99.789655	-3.204131	10.1394389664
99.779079	-3.189499	10.1394306254
99.768503	-3.174866	10.1395652487
99.757927	-3.160233	10.1397814614
99.747352	-3.1456	10.1401573886
99.736776	-3.130966	10.1409690054
99.726202	-3.116333	10.1422063212
99.715627	-3.1017	10.1435390445
99.705053	-3.087066	10.1448950638
99.694479	-3.072432	10.1462547611
99.683905	-3.057798	10.1476041149
99.673332	-3.043165	10.1487642309
99.662759	-3.02853	10.1493703448
99.652186	-3.013896	10.149541662
99.641613	-2.999262	10.1496077503
99.631041	-2.984628	10.1496476061
99.620469	-2.969993	10.1496235158
99.609897	-2.955359	10.1494839774
99.599326	-2.940724	10.1493710742
99.588755	-2.926089	10.1498798306
99.578184	-2.911454	10.1509532034
99.567613	-2.896819	10.1520324589
99.557043	-2.882184	10.1529863389
99.546473	-2.867549	10.1538212486
99.535903	-2.852914	10.1545757186
99.525334	-2.838278	10.1553312357
99.514765	-2.823643	10.1561612926
99.504196	-2.809007	10.1571192363
99.493627	-2.794371	10.158161375
99.483059	-2.779736	10.1593013726
99.472491	-2.7651	10.1605985401
99.461923	-2.750464	10.1620913915
99.451355	-2.735827	10.1637083715
100.280365	-3.851931	10.3670887906
100.269773	-3.837304	10.3669726066
100.259182	-3.822677	10.3667058737
100.248591	-3.80805	10.36638435
100.238001	-3.793422	10.3660663899
100.227411	-3.778795	10.3657716759
100.216821	-3.764167	10.3656964267
100.206232	-3.74954	10.3661910184
100.195643	-3.734912	10.3672997535
100.185054	-3.720284	10.3686590303
100.174466	-3.705656	10.3700230544
100.163878	-3.691028	10.3712888585
100.15329	-3.676399	10.3724360615
100.142703	-3.661771	10.373466607
100.132116	-3.647142	10.3744229505
100.12153	-3.632513	10.3753161779
100.110943	-3.617884	10.3760896746
100.100358	-3.603255	10.3767657835
100.089772	-3.588626	10.3773256832
100.079187	-3.573997	10.3778259874
100.068602	-3.559368	10.3783063743
100.058018	-3.544738	10.3788776497
100.047433	-3.530108	10.3795645355
100.03685	-3.515479	10.3803614899
100.026266	-3.500849	10.3812178126
100.015683	-3.486219	10.3821550571
100.0051	-3.471588	10.383168551
99.994518	-3.456958	10.3841701821
99.983936	-3.442328	10.3849453508
99.973354	-3.427697	10.385444305
99.962772	-3.413066	10.3858219797
99.952191	-3.398436	10.3861932015
99.94161	-3.383805	10.3865579095
99.93103	-3.369174	10.3868895746
99.92045	-3.354542	10.3872463156
99.90987	-3.339911	10.387893072
99.89929	-3.32528	10.3891209124
99.888711	-3.310648	10.3908153352
99.878132	-3.296016	10.3926573549
99.867553	-3.281385	10.3945070002
99.856975	-3.266753	10.3963637047
99.846397	-3.252121	10.3980912168
99.835819	-3.237488	10.3993645506
99.825242	-3.222856	10.3999645646
99.814665	-3.208224	10.4001581936
99.804088	-3.193591	10.400294809
99.793512	-3.178959	10.4005118008
99.782936	-3.164326	10.4008326152
99.77236	-3.149693	10.4012532896
99.761784	-3.13506	10.4018337766
99.751209	-3.120427	10.4026741052
99.740634	-3.105794	10.403744956
99.730059	-3.09116	10.4049435995
99.719485	-3.076527	10.4061824995
99.708911	-3.061893	10.4074239009
99.698337	-3.04726	10.4085976874
99.687764	-3.032626	10.4096117998
99.677191	-3.017992	10.4103281097
99.666618	-3.003358	10.4107857744
99.656045	-2.988724	10.4111049957
99.645473	-2.97409	10.4113635953
99.634901	-2.959456	10.4115594477
99.624329	-2.944821	10.4117166049
99.613757	-2.930187	10.4119382373
99.603186	-2.915552	10.4124465633
99.592615	-2.900917	10.4132071901
99.582045	-2.886282	10.4140421125
99.571474	-2.871647	10.4148145342
99.560904	-2.857012	10.4155316529
99.550334	-2.842377	10.4162065126
99.539765	-2.827742	10.4168962599
99.529195	-2.813106	10.4176341059
99.518626	-2.798471	10.4184494577
99.508058	-2.783835	10.4193561335
99.497489	-2.7692	10.4203169304
99.486921	-2.754564	10.4213930793
99.476353	-2.739928	10.4225579043
99.465785	-2.725292	10.4237016717
100.294802	-3.841383	10.6284615773
100.28421	-3.826756	10.6284259506
100.273619	-3.81213	10.6282295292
100.263028	-3.797503	10.6279726639
100.252437	-3.782876	10.6277299055
100.241847	-3.768248	10.6276208798
100.231257	-3.753621	10.6277683989
100.220668	-3.738993	10.62835371
100.210079	-3.724366	10.6293493898
100.19949	-3.709738	10.6306210235
100.188902	-3.69511	10.6320014207
100.178314	-3.680482	10.6333657365
100.167726	-3.665854	10.6346418611
100.157139	-3.651225	10.6358018996
100.146552	-3.636597	10.6367830961
100.135965	-3.621968	10.6375916239
100.125379	-3.60734	10.6382320982
100.114793	-3.592711	10.6387507113
100.104207	-3.578082	10.6391829152
100.093622	-3.563453	10.6395857514
100.083037	-3.548823	10.639998274
100.072453	-3.534194	10.6404592884
100.061869	-3.519565	10.6409881957
100.051285	-3.504935	10.6415866393
100.040701	-3.490305	10.6422345617
100.030118	-3.475675	10.6429414001
100.019535	-3.461045	10.6436941132
100.008952	-3.446415	10.6444643375
99.99837	-3.431785	10.6452136074
99.987788	-3.417154	10.6459299055
99.977207	-3.402524	10.6466407388
99.966625	-3.387893	10.6473615655
99.956044	-3.373262	10.6480934091
99.945464	-3.358631	10.6488244581
99.934884	-3.344	10.6495817837
99.924304	-3.329369	10.6504655191
99.913724	-3.314738	10.6515631826
99.903145	-3.300107	10.6528533937
99.892566	-3.285475	10.6542432564
99.881987	-3.270843	10.6556512246
99.871408	-3.256212	10.657016691
99.86083	-3.24158	10.6582804588
99.850253	-3.226948	10.6593101387
99.839675	-3.212316	10.6600295212
99.829098	-3.197683	10.6605602445
99.818521	-3.183051	10.6610090258
99.807945	-3.168419	10.6614868112
99.797368	-3.153786	10.6620137735
99.786792	-3.139153	10.6626296002
99.776217	-3.12452	10.6633673763
99.765641	-3.109887	10.6642306726
99.755066	-3.095254	10.6652343195
99.744492	-3.080621	10.6663342591
99.733917	-3.065988	10.6674568968
99.723343	-3.051355	10.6685825246
99.712769	-3.036721	10.6696580658
99.702195	-3.022087	10.6706134674
99.691622	-3.007454	10.6714079055
99.681049	-2.99282	10.6720626916
99.670476	-2.978186	10.6726143209
99.659904	-2.963552	10.6731151068
99.649332	-2.948918	10.6735694486
99.63876	-2.934283	10.6740015797
99.628188	-2.919649	10.6744361307
99.617617	-2.905014	10.6749527526
99.607046	-2.89038	10.6755242209
99.596475	-2.875745	10.6761218169
99.585905	-2.86111	10.6767155439
99.575335	-2.846475	10.6772861637
99.564765	-2.83184	10.6778474766
99.554195	-2.817205	10.6784247961
99.543626	-2.80257	10.6790566271
99.533056	-2.787935	10.6797270982
99.522488	-2.773299	10.6804726288
99.511919	-2.758664	10.6812315145
99.501351	-2.744028	10.6820444063
99.490783	-2.729392	10.6828880162
99.480215	-2.714756	10.6837304855
100.309239	-3.830835	10.8900141372
100.298647	-3.816209	10.8899825269
100.288055	-3.801582	10.8897930343
100.277465	-3.786955	10.8895619452
100.266874	-3.772329	10.8893458375
100.256284	-3.757701	10.8893118399
100.245694	-3.743074	10.8895576815
100.235104	-3.728447	10.8901957907
100.224515	-3.713819	10.8912415714
100.213926	-3.699192	10.8925573258
100.203338	-3.684564	10.8940378685
100.19275	-3.669936	10.8955545436
100.182162	-3.655308	10.8970104088
100.171574	-3.64068	10.8982981036
100.160987	-3.626052	10.899320284
100.150401	-3.611423	10.9000451749
100.139814	-3.596795	10.900493629
100.129228	-3.582166	10.9008189414
100.118643	-3.567537	10.9011003679
100.108057	-3.552908	10.9013625416
100.097472	-3.538279	10.9016566272
100.086888	-3.52365	10.9019972103
100.076303	-3.50902	10.9023722542
100.065719	-3.494391	10.9027806628
100.055136	-3.479761	10.9032280541
100.044552	-3.465132	10.9036738207
100.033969	-3.450502	10.9041808268
100.023387	-3.435872	10.9047844413
100.012804	-3.421242	10.9055112601
100.002222	-3.406611	10.9064189712
99.991641	-3.391981	10.9074587801
99.981059	-3.37735	10.9085615305
99.970478	-3.36272	10.9096823742
99.959898	-3.348089	10.9108056769
99.949317	-3.333458	10.9118788835
99.938737	-3.318827	10.9129082191
99.928157	-3.304196	10.913888663
99.917578	-3.289565	10.9148544139
99.906999	-3.274933	10.9158285984
99.89642	-3.260302	10.9167902331
99.885841	-3.24567	10.9177336441
99.875263	-3.231039	10.9186254152
99.864685	-3.216407	10.91945517
99.854108	-3.201775	10.9202326799
99.843531	-3.187143	10.9209664433
99.832954	-3.17251	10.9216868409
99.822377	-3.157878	10.9223973739
99.811801	-3.143246	10.923138392
99.801225	-3.128613	10.923927412
99.790649	-3.11398	10.9247699477
99.780073	-3.099348	10.9256658139
99.769498	-3.084715	10.9266432548
99.758923	-3.070082	10.9276662195
99.748349	-3.055449	10.9287249027
99.737775	-3.040815	10.9297845932
99.727201	-3.026182	10.9307960106
99.716627	-3.011549	10.9317373388
99.706054	-2.996915	10.9326159417
99.69548	-2.982281	10.9334075369
99.684908	-2.967647	10.9341729261
99.674335	-2.953014	10.9348899516
99.663763	-2.93838	10.9356080674
99.653191	-2.923745	10.9362939926
99.642619	-2.909111	10.9368955617
99.632048	-2.894477	10.9374062822
99.621477	-2.879842	10.9378425215
99.610906	-2.865208	10.9382316839
99.600335	-2.850573	10.9386238629
99.589765	-2.835938	10.9390340134
99.579195	-2.821303	10.9394589904
99.568625	-2.806668	10.9399152212
99.558056	-2.792033	10.9404307603
99.547486	-2.777398	10.9409788497
99.536917	-2.762763	10.9415521995
99.526349	-2.748127	10.9421227509
99.51578	-2.733492	10.942639175
99.505212	-2.718856	10.9431708194
99.494644	-2.704221	10.9437574755
100.323675	-3.820288	11.1517344167
100.313083	-3.805661	11.1516600052
100.302492	-3.791035	11.1514029849
100.291901	-3.776408	11.1511007274
100.28131	-3.761781	11.1508439519
100.27072	-3.747154	11.1507604068
100.26013	-3.732527	11.1510050844
100.24954	-3.7179	11.1517236587
100.238951	-3.703273	11.1529119349
100.228362	-3.688645	11.1544075732
100.217773	-3.674018	11.1560514911
100.207185	-3.65939	11.1577898393
100.196597	-3.644762	11.1595139744
100.18601	-3.630134	11.1610576562
100.175423	-3.615506	11.1621536192
100.164836	-3.600878	11.162690286
100.154249	-3.586249	11.1628611003
100.143663	-3.571621	11.1629165456
100.133077	-3.556992	11.1629890512
100.122492	-3.542363	11.1631180209
100.111907	-3.527734	11.1632914877
100.101322	-3.513105	11.1635032225
100.090738	-3.498476	11.1637484598
100.080154	-3.483847	11.1639924766
100.06957	-3.469217	11.1642222447
100.058986	-3.454588	11.1644138429
100.048403	-3.439958	11.1646379629
100.037821	-3.425328	11.1650148653
100.027238	-3.410698	11.1657133912
100.016656	-3.396068	11.166838131
100.006074	-3.381438	11.1682524405
99.995493	-3.366808	11.1697816791
99.984912	-3.352177	11.1713263723
99.974331	-3.337547	11.1728301283
99.96375	-3.322916	11.1742358308
99.95317	-3.308285	11.1753976737
99.94259	-3.293654	11.1762241385
99.932011	-3.279023	11.1768445716
99.921432	-3.264392	11.1774032378
99.910853	-3.24976	11.1779584775
99.900274	-3.235129	11.1784894606
99.889696	-3.220497	11.1790456578
99.879118	-3.205866	11.1796750655
99.86854	-3.191234	11.1804697267
99.857963	-3.176602	11.18139575
99.847386	-3.16197	11.1823473738
99.836809	-3.147338	11.1832802746
99.826233	-3.132705	11.184222549
99.815657	-3.118073	11.1851582422
99.805081	-3.10344	11.1861074157
99.794505	-3.088808	11.1870436973
99.78393	-3.074175	11.1880049436
99.773355	-3.059542	11.1889872766
99.76278	-3.044909	11.1899840356
99.752206	-3.030276	11.1909895637
99.741632	-3.015643	11.191972746
99.731058	-3.001009	11.1929322882
99.720485	-2.986376	11.1938662925
99.709911	-2.971742	11.1947804889
99.699338	-2.957109	11.1956997999
99.688766	-2.942475	11.1966635208
99.678193	-2.927841	11.1976445685
99.667621	-2.913207	11.1986103503
99.65705	-2.898573	11.1994118225
99.646478	-2.883939	11.1998927443
99.635907	-2.869305	11.2001351735
99.625336	-2.85467	11.2003131763
99.614765	-2.840036	11.2005083531
99.604195	-2.825401	11.2007607257
99.593625	-2.810766	11.201041558
99.583055	-2.796131	11.2013643068
99.572485	-2.781496	11.2017599134
99.561916	-2.766861	11.2022339957
99.551347	-2.752226	11.2026902068
99.540778	-2.737591	11.2030470519
99.53021	-2.722956	11.2032815148
99.519641	-2.70832	11.2034357314
99.509073	-2.693685	11.2037145497
100.338111	-3.80974	11.4136671027
100.327519	-3.795113	11.4134377253
100.316928	-3.780487	11.4130258236
100.306337	-3.765861	11.4126053074
100.295746	-3.751234	11.4122321426
100.285155	-3.736607	11.4119694721
100.274565	-3.72198	11.4120791406
100.263976	-3.707353	11.412917183
100.253386	-3.692726	11.4143855618
100.242797	-3.678099	11.4161362531
100.232209	-3.663471	11.4180237476
100.22162	-3.648844	11.4199982913
100.211032	-3.634216	11.4220887375
100.200445	-3.619588	11.4240785064
100.189857	-3.60496	11.4253313561
100.179271	-3.590332	11.4255200008
100.168684	-3.575704	11.425214511
100.158098	-3.561076	11.4249528907
100.147512	-3.546447	11.4248258706
100.136926	-3.531818	11.4248086994
100.126341	-3.51719	11.424869825
100.115756	-3.502561	11.4249857037
100.105172	-3.487932	11.4251279214
100.094588	-3.473303	11.4252409145
100.084004	-3.458673	11.4252876567
100.07342	-3.444044	11.4252178888
100.062837	-3.429414	11.4250790009
100.052254	-3.414785	11.4250510873
100.041672	-3.400155	11.4256560331
100.03109	-3.385525	11.4271352385
100.020508	-3.370895	11.4290700416
100.009926	-3.356265	11.4310420758
99.999345	-3.341634	11.4329901982
99.988764	-3.327004	11.4349057999
99.978183	-3.312373	11.4367352324
99.967603	-3.297742	11.4380955816
99.957023	-3.283112	11.4386322034
99.946444	-3.268481	11.4388109533
99.935864	-3.25385	11.4389604811
99.925285	-3.239218	11.4391399955
99.914707	-3.224587	11.4392941473
99.904128	-3.209956	11.439434236
99.89355	-3.195324	11.4398192563
99.882972	-3.180693	11.4406792439
99.872395	-3.166061	11.4418669503
99.861818	-3.151429	11.4430637036
99.851241	-3.136797	11.4441923218
99.840664	-3.122165	11.4452761604
99.830088	-3.107532	11.4463648491
99.819512	-3.0929	11.4474126494
99.808937	-3.078268	11.4483887148
99.798361	-3.063635	11.4493145745
99.787786	-3.049002	11.4502675672
99.777211	-3.034369	11.4512360199
99.766637	-3.019736	11.4522166234
99.756063	-3.005103	11.4531843633
99.745489	-2.99047	11.4541429519
99.734915	-2.975837	11.4551153219
99.724342	-2.961203	11.4561392721
99.713769	-2.94657	11.4571995197
99.703196	-2.931936	11.4583492133
99.692624	-2.917303	11.4596184491
99.682052	-2.902669	11.4609673228
99.67148	-2.888035	11.462063286
99.660908	-2.873401	11.4624583307
99.650337	-2.858767	11.4623816513
99.639766	-2.844132	11.4623109692
99.629195	-2.829498	11.4623421571
99.618625	-2.814863	11.4624683957
99.608054	-2.800229	11.4625964519
99.597484	-2.785594	11.4627670648
99.586915	-2.770959	11.4630842303
99.576345	-2.756324	11.4635426341
99.565776	-2.741689	11.4639488209
99.555207	-2.727054	11.4641505699
99.544639	-2.712419	11.4640951159
99.53407	-2.697784	11.4637700276
99.523502	-2.683148	11.4635332393
100.352547	-3.799191	11.6757553376
100.341955	-3.784565	11.675166682
100.331364	-3.769939	11.6745917097
100.320772	-3.755313	11.6740881421
100.310181	-3.740686	11.6736272541
100.299591	-3.72606	11.6731421744
100.289001	-3.711433	11.6728590324
100.278411	-3.696806	11.6738922593
100.267821	-3.682179	11.6758336954
100.257232	-3.667552	11.6778351259
100.246644	-3.652925	11.6798705765
100.236055	-3.638297	11.6820263967
100.225467	-3.62367	11.684424571
100.214879	-3.609042	11.6870741904
100.204292	-3.594414	11.6888196663
100.193705	-3.579786	11.6881413669
100.183118	-3.565158	11.6873035322
100.172532	-3.55053	11.6867854465
100.161946	-3.535902	11.6865171298
100.15136	-3.521273	11.6864175772
100.140775	-3.506645	11.6864128127
100.13019	-3.492016	11.6864725715
100.119606	-3.477387	11.68656092
100.109021	-3.462758	11.6865797733
100.098437	-3.448129	11.6864934183
100.087854	-3.4335	11.6862294227
100.077271	-3.41887	11.6857167054
100.066688	-3.404241	11.6850246936
100.056105	-3.389611	11.6852800584
100.045523	-3.374981	11.6875033798
100.034941	-3.360351	11.6900625261
100.024359	-3.345721	11.6924202011
100.013778	-3.331091	11.6946477675
100.003197	-3.316461	11.6968608372
99.992616	-3.30183	11.6991455296
99.982036	-3.2872	11.7009845011
99.971456	-3.272569	11.7008817014
99.960876	-3.257938	11.7006264563
99.950297	-3.243307	11.7004900475
99.939717	-3.228676	11.7003757725
99.929139	-3.214045	11.7002154613
99.91856	-3.199414	11.69991719
99.907982	-3.184783	11.6998479887
99.897404	-3.170151	11.7009743865
99.886827	-3.155519	11.7025065314
99.876249	-3.140888	11.7038854519
99.865672	-3.126256	11.7051512102
99.855096	-3.111624	11.7063568773
99.844519	-3.096992	11.7075308485
99.833943	-3.08236	11.7087118223
99.823368	-3.067727	11.709677383
99.812792	-3.053095	11.7105735214
99.802217	-3.038462	11.711518545
99.791642	-3.023829	11.7124804673
99.781068	-3.009197	11.713445796
99.770493	-2.994564	11.7143945023
99.75992	-2.979931	11.7153556486
99.749346	-2.965298	11.7163635586
99.738772	-2.950664	11.7174451841
99.728199	-2.936031	11.7185899061
99.717627	-2.921397	11.7198735768
99.707054	-2.906764	11.7213356023
99.696482	-2.89213	11.7230851174
99.68591	-2.877496	11.7248221853
99.675338	-2.862862	11.7248560893
99.664767	-2.848228	11.7243686925
99.654195	-2.833594	11.7241075196
99.643625	-2.81896	11.7240800159
99.633054	-2.804326	11.7241442593
99.622484	-2.789691	11.7242332391
99.611914	-2.775057	11.7242491391
99.601344	-2.760422	11.7244620297
99.590774	-2.745787	11.7250527836
99.580205	-2.731152	11.7254592389
99.569636	-2.716517	11.7255713758
99.559067	-2.701882	11.7253133795
99.548499	-2.687247	11.7246195858
99.537931	-2.672612	11.72354129
100.366983	-3.788643	11.9371487255
100.356391	-3.774017	11.9365209337
100.345799	-3.759391	11.9359892051
100.335208	-3.744765	11.9355838242
100.324617	-3.730139	11.9351988411
100.314026	-3.715512	11.934761617
100.303436	-3.700886	11.934375019
100.292846	-3.686259	11.9355276466
100.282256	-3.671632	11.9375777339
100.271667	-3.657005	11.9395958181
100.261078	-3.642378	11.9415934178
100.25049	-3.627751	11.9437049152
100.239902	-3.613123	11.9460555492
100.229314	-3.598496	11.948620933
100.218726	-3.583868	11.9502785066
100.208139	-3.56924	11.9496487697
100.197552	-3.554612	11.9488107478
100.186966	-3.539984	11.9482946056
100.17638	-3.525356	11.9480320907
100.165794	-3.510728	11.9479305252
100.155209	-3.496099	11.9479366836
100.144624	-3.481471	11.947985297
100.134039	-3.466842	11.9480509877
100.123455	-3.452213	11.9480635125
100.112871	-3.437584	11.9479494578
100.102287	-3.422955	11.9476260198
100.091704	-3.408326	11.9470093925
100.081121	-3.393697	11.9460619391
100.070538	-3.379067	11.9459181464
100.059955	-3.364437	11.9487266801
100.049373	-3.349808	11.9515000206
100.038792	-3.335178	11.9539865879
100.02821	-3.320548	11.9562673715
100.017629	-3.305918	11.9584912369
100.007048	-3.291287	11.9606772748
99.996468	-3.276657	11.9622321312
99.985888	-3.262026	11.9623916257
99.975308	-3.247396	11.9621352987
99.964729	-3.232765	11.9619240108
99.954149	-3.218134	11.9617031642
99.94357	-3.203503	11.9614145044
99.932992	-3.188872	11.9610033486
99.922414	-3.174241	11.9607357928
99.911836	-3.159609	11.9619344896
99.901258	-3.144978	11.9634906154
99.890681	-3.130346	11.9649201978
99.880104	-3.115715	11.9662114509
99.869527	-3.101083	11.9674368449
99.858951	-3.086451	11.9686430081
99.848374	-3.071819	11.9697895387
99.837799	-3.057187	11.9708203994
99.827223	-3.042554	11.9717769558
99.816648	-3.027922	11.9727412635
99.806073	-3.013289	11.9737202423
99.795498	-2.998657	11.9746855471
99.784924	-2.984024	11.9756551038
99.77435	-2.969391	11.9766146068
99.763776	-2.954758	11.9776266699
99.753203	-2.940125	11.9787126695
99.742629	-2.925492	11.979848277
99.732056	-2.910858	11.9811220203
99.721484	-2.896225	11.9825932521
99.710911	-2.881591	11.9843072792
99.700339	-2.866958	11.9859298806
99.689768	-2.852324	11.9861405356
99.679196	-2.83769	11.9857756694
99.668625	-2.823056	11.9856283166
99.658054	-2.808422	11.9856825688
99.647483	-2.793788	11.9858383673
99.636913	-2.779153	11.986018247
99.626343	-2.764519	11.9861474035
99.615773	-2.749884	11.9864408893
99.605203	-2.73525	11.9869345417
99.594634	-2.720615	11.9873070252
99.584065	-2.70598	11.9874010128
99.573496	-2.691345	11.9871526942
99.562927	-2.67671	11.9865363473
99.552359	-2.662075	11.9858107524
100.381418	-3.778094	12.1974779659
100.370826	-3.763468	12.1973931907
100.360234	-3.748843	12.1971996687
100.349642	-3.734217	12.1970614296
100.339051	-3.719591	12.1969672879
100.328461	-3.704964	12.1969348101
