99.420209	-3.272627	9.43368485644
99.409638	-3.25799	9.02694561833
99.399066	-3.243354	8.61676741133
99.388495	-3.228717	8.21219328542
99.377925	-3.21408	7.81928116842
99.367354	-3.199443	7.44317556194
99.356784	-3.184806	7.08924271991
99.346214	-3.170168	6.76396401988
99.335644	-3.155531	6.47859232737
99.325075	-3.140894	6.24818968303
99.314506	-3.126256	6.08242338017
99.303937	-3.111619	5.97651964362
99.293368	-3.096981	5.91326664515
99.2828	-3.082343	5.87337042563
99.272232	-3.067705	5.83878888258
99.261664	-3.053067	5.78723033595
99.251097	-3.038429	5.68610688071
99.24053	-3.023791	5.49861038086
99.229963	-3.009152	5.20982644748
99.219396	-2.994514	4.84081394878
99.20883	-2.979875	4.42761423902
99.198264	-2.965237	4.00099954375
99.187698	-2.950598	3.59636541772
99.177132	-2.935959	3.2683748038
100.005995	-4.05229	3.54002637402
99.995405	-4.03766	3.5572844908
99.984816	-4.02303	3.59297751696
99.974227	-4.0084	3.64215359131
99.963638	-3.99377	3.70680192832
99.95305	-3.979139	3.77560573168
99.942463	-3.964508	3.80109190496
99.931875	-3.949878	3.71683565832
99.921288	-3.935247	3.5271624588
99.910702	-3.920616	3.30822665691
99.900115	-3.905985	3.11910601426
99.889529	-3.891353	2.97941884604
99.878944	-3.876722	2.89134049015
99.868358	-3.86209	2.83991503556
99.857773	-3.847459	2.78979514598
99.847189	-3.832827	2.7126466325
99.836605	-3.818195	2.62448432665
99.826021	-3.803563	2.5492609268
99.815437	-3.788931	2.49028390657
99.804854	-3.774298	2.44345588754
99.794271	-3.759666	2.4139520765
99.783689	-3.745033	2.41831340282
99.773107	-3.730401	2.46060298683
99.762525	-3.715768	2.51801136205
99.751943	-3.701135	2.56900493339
99.741362	-3.686502	2.60874824576
99.730781	-3.671869	2.64666067202
99.720201	-3.657235	2.71488921352
99.709621	-3.642602	2.88287422406
99.699041	-3.627968	3.21557340303
99.688461	-3.613335	3.67174739203
99.677882	-3.598701	4.13977244638
99.667303	-3.584067	4.54795906288
99.656725	-3.569433	4.87159033782
99.646146	-3.554799	5.16183170854
99.635569	-3.540165	5.58007987809
99.624991	-3.52553	6.26163929126
99.614414	-3.510896	7.06743329599
99.603837	-3.496261	7.77926751498
99.59326	-3.481626	8.29640928645
99.582684	-3.466992	8.59805537329
99.572108	-3.452357	8.73190326007
99.561532	-3.437722	8.8571564639
99.550957	-3.423086	9.13781267409
99.540382	-3.408451	9.5239362728
99.529807	-3.393816	9.8174268326
99.519232	-3.37918	9.91373059414
99.508658	-3.364545	9.79867190655
99.498084	-3.349909	9.51829529994
99.487511	-3.335273	9.22008502274
99.476938	-3.320637	9.10098598221
99.466365	-3.306001	9.13126729067
99.455792	-3.291365	9.12494294649
99.44522	-3.276729	9.01540687894
99.434647	-3.262092	8.81899451537
99.424076	-3.247456	8.56640981095
99.413504	-3.232819	8.27561221075
99.402933	-3.218183	7.94920792428
99.392362	-3.203546	7.59777913314
99.381791	-3.188909	7.24452537008
99.371221	-3.174272	6.90552650492
99.360651	-3.159635	6.58828847101
99.350081	-3.144998	6.3019704258
99.339512	-3.13036	6.06439696739
99.328943	-3.115723	5.89352379984
99.318374	-3.101086	5.78441188091
99.307805	-3.086448	5.71356950947
99.297237	-3.07181	5.66491888311
99.286668	-3.057172	5.62928162592
99.276101	-3.042535	5.59211116782
99.265533	-3.027897	5.51370817024
99.254966	-3.013258	5.31833913641
99.244399	-2.99862	4.96703904325
99.233832	-2.983982	4.51440220234
99.223265	-2.969344	4.01918282337
99.212699	-2.954705	3.50099619695
99.202133	-2.940067	2.98328933203
99.191568	-2.925428	2.55111373569
100.020438	-4.041747	3.20008104132
100.009848	-4.027117	3.28935600935
99.999259	-4.012487	3.41285845348
99.98867	-3.997857	3.55846900871
99.978082	-3.983227	3.74046126711
99.967493	-3.968597	3.96330785714
99.956906	-3.953966	4.14846694813
99.946318	-3.939336	4.09011600879
99.935731	-3.924705	3.80096813161
99.925144	-3.910074	3.50711535041
99.914558	-3.895443	3.28811238904
99.903972	-3.880812	3.15121130953
99.893386	-3.866181	3.09344288733
99.882801	-3.851549	3.09547275006
99.872216	-3.836918	3.07371008176
99.861631	-3.822286	2.93716124089
99.851047	-3.807654	2.77126595627
99.840463	-3.793022	2.63619996932
99.829879	-3.77839	2.5278514944
99.819296	-3.763758	2.4317362388
99.808713	-3.749126	2.34884913895
99.79813	-3.734493	2.3272685133
99.787548	-3.719861	2.39101655571
99.776966	-3.705228	2.46738238707
99.766384	-3.690595	2.51974126839
99.755803	-3.675963	2.54007955942
99.745222	-3.661329	2.52436168611
99.734641	-3.646696	2.480399163
99.724061	-3.632063	2.50610939909
99.713481	-3.61743	2.82376880265
99.702902	-3.602796	3.30159532337
99.692322	-3.588163	3.70770164964
99.681743	-3.573529	3.97467563381
99.671165	-3.558895	4.06375436912
99.660586	-3.544261	3.98985375849
99.650008	-3.529627	4.08823319813
99.639431	-3.514993	4.87783752454
99.628853	-3.500358	5.83753920997
99.618276	-3.485724	6.5543412224
99.607699	-3.471089	6.95587723036
99.597123	-3.456455	7.02678454549
99.586547	-3.44182	6.80689217884
99.575971	-3.427185	6.62008770192
99.565396	-3.41255	7.01632760987
99.55482	-3.397915	7.76032298029
99.544246	-3.38328	8.2993636029
99.533671	-3.368644	8.5201028067
99.523097	-3.354009	8.42103062781
99.512523	-3.339373	8.02894233649
99.501949	-3.324738	7.5398612687
99.491376	-3.310102	7.58992052607
99.480803	-3.295466	7.98493675119
99.47023	-3.28083	8.23028918133
99.459657	-3.266194	8.30413113533
99.449085	-3.251558	8.25560553681
99.438513	-3.236921	8.13175468732
99.427942	-3.222285	7.95342996566
99.41737	-3.207648	7.69520872842
99.406799	-3.193012	7.36666832817
99.396229	-3.178375	7.03024287144
99.385658	-3.163738	6.70494874854
99.375088	-3.149101	6.39243093124
99.364518	-3.134464	6.094724722
99.353948	-3.119827	5.83417411916
99.343379	-3.10519	5.66402410647
99.33281	-3.090552	5.56830439643
99.322241	-3.075915	5.49649843744
99.311673	-3.061277	5.44130977494
99.301105	-3.04664	5.40688359386
99.290537	-3.032002	5.39724384271
99.279969	-3.017364	5.3895423475
99.269402	-3.002726	5.22087475523
99.258834	-2.988088	4.75680547769
99.248268	-2.97345	4.20385473219
99.237701	-2.958812	3.63565445849
99.227135	-2.944173	3.03626810314
99.216568	-2.929535	2.38616182574
99.206003	-2.914896	1.7527798401
100.034881	-4.031204	2.85731470409
100.024292	-4.016574	3.03227934715
100.013702	-4.001944	3.21976899933
100.003113	-3.987314	3.4294781296
99.992524	-3.972684	3.69066048306
99.981936	-3.958054	4.03478727925
99.971348	-3.943424	4.45197469933
99.960761	-3.928793	4.38519925211
99.950173	-3.914163	3.94540765945
99.939586	-3.899532	3.59808328541
99.929	-3.884901	3.36563200852
99.918414	-3.87027	3.23463843082
99.907828	-3.855639	3.19867396956
99.897242	-3.841008	3.25225665657
99.886657	-3.826376	3.32948350339
99.876073	-3.811745	3.07743818252
99.865488	-3.797113	2.85820874424
99.854904	-3.782482	2.6928517409
99.84432	-3.76785	2.56120004952
99.833737	-3.753218	2.43998281006
99.823154	-3.738586	2.31331171865
99.812571	-3.723953	2.25117815811
99.801989	-3.709321	2.37007617634
99.791407	-3.694688	2.46387995113
99.780825	-3.680056	2.51959601198
99.770244	-3.665423	2.53207850995
99.759662	-3.65079	2.49034096089
99.749082	-3.636157	2.38017091942
99.738501	-3.621524	2.21738159025
99.727921	-3.606891	2.60088031037
99.717342	-3.592258	3.09631550347
99.706762	-3.577624	3.45257696151
99.696183	-3.56299	3.6309210775
99.685604	-3.548357	3.58617439051
99.675026	-3.533723	3.27902323687
99.664448	-3.519089	2.87970864777
99.65387	-3.504455	3.99048805593
99.643292	-3.489821	5.01403004868
99.632715	-3.475186	5.68832365839
99.622138	-3.460552	5.98989919867
99.611562	-3.445918	5.89658398714
99.600986	-3.431283	5.37162417749
99.59041	-3.416648	4.53626156904
99.579834	-3.402013	5.33848203461
99.569259	-3.387378	6.45809613795
99.558684	-3.372743	7.16739583907
99.548109	-3.358108	7.47659586907
99.537535	-3.343473	7.42257229132
99.526961	-3.328837	7.03227688535
99.516387	-3.314202	6.40420146687
99.505813	-3.299566	6.6150930985
99.49524	-3.28493	7.19524543542
99.484667	-3.270295	7.55617684063
99.474095	-3.255659	7.72410654512
99.463522	-3.241023	7.76118294423
99.45295	-3.226386	7.72033762223
99.442379	-3.21175	7.63480550942
99.431807	-3.197114	7.42935476797
99.421236	-3.182477	7.11329282693
99.410665	-3.167841	6.79952320852
99.400095	-3.153204	6.49437069821
99.389525	-3.138567	6.19393935934
99.378955	-3.12393	5.89334451283
99.368385	-3.109293	5.59599622726
99.357815	-3.094656	5.43968228536
99.347246	-3.080019	5.35179961543
99.336677	-3.065382	5.26776155582
99.326109	-3.050744	5.19358870631
99.31554	-3.036107	5.14201415883
99.304972	-3.021469	5.12746429673
99.294405	-3.006831	5.15430993122
99.283837	-2.992194	5.05398853419
99.27327	-2.977556	4.46761431385
99.262703	-2.962918	3.87297702913
99.252136	-2.94828	3.2854852514
99.24157	-2.933641	2.66866869764
99.231003	-2.919003	1.98069184055
99.220437	-2.904365	1.22830701611
100.049324	-4.02066	2.66273816099
100.038734	-4.00603	2.81851647594
100.028145	-3.991401	3.01659303085
100.017556	-3.976771	3.24308739207
100.006967	-3.962141	3.51604324923
99.996379	-3.947511	3.84913404043
99.98579	-3.932881	4.17960107947
99.975203	-3.918251	4.15323824505
99.964615	-3.90362	3.83467917136
99.954028	-3.88899	3.53792458863
99.943442	-3.874359	3.33122327223
99.932855	-3.859728	3.2123253706
99.92227	-3.845097	3.17416207475
99.911684	-3.830466	3.19849506463
99.901099	-3.815835	3.18957962925
99.890514	-3.801204	3.03997342094
99.879929	-3.786572	2.85922849214
99.869345	-3.771941	2.71109565355
99.858761	-3.757309	2.59096602303
99.848178	-3.742677	2.48461103982
99.837595	-3.728045	2.39023689973
99.827012	-3.713413	2.36640812844
99.816429	-3.698781	2.43621076142
99.805847	-3.684148	2.51885979786
99.795265	-3.669516	2.57622353926
99.784684	-3.654883	2.59845527164
99.774103	-3.640251	2.57863419865
99.763522	-3.625618	2.52346992166
99.752941	-3.610985	2.52581937217
99.742361	-3.596352	2.76462963989
99.731781	-3.581719	3.12190372264
99.721202	-3.567085	3.40816529062
99.710623	-3.552452	3.55365560617
99.700044	-3.537818	3.52943082825
99.689465	-3.523185	3.36899776483
99.678887	-3.508551	3.3942326452
99.668309	-3.493917	3.9754767549
99.657731	-3.479283	4.71197619115
99.647154	-3.464649	5.24066751498
99.636577	-3.450015	5.46383145335
99.626001	-3.43538	5.35272054264
99.615424	-3.420746	4.91694106298
99.604848	-3.406111	4.49274970063
99.594272	-3.391476	4.96716999267
99.583697	-3.376842	5.85843413229
99.573122	-3.362207	6.50800935236
99.562547	-3.347572	6.83009379099
99.551973	-3.332937	6.85153708678
99.541398	-3.318301	6.63703158015
99.530825	-3.303666	6.39824892245
99.520251	-3.28903	6.49883636012
99.509678	-3.274395	6.83720464704
99.499105	-3.259759	7.12514582744
99.488532	-3.245123	7.28646762014
99.47796	-3.230487	7.34187777785
99.467387	-3.215851	7.324327437
99.456816	-3.201215	7.24698628945
99.446244	-3.186579	7.07546033545
99.435673	-3.171943	6.82518438733
99.425102	-3.157306	6.55348498394
99.414531	-3.14267	6.27988716409
99.403961	-3.128033	6.00507479989
99.393391	-3.113396	5.72926903167
99.382821	-3.098759	5.47286108797
99.372251	-3.084122	5.28724955595
99.361682	-3.069485	5.15426424295
99.351113	-3.054848	5.03318698578
99.340544	-3.040211	4.9197672964
99.329976	-3.025574	4.82251041725
99.319408	-3.010936	4.74645549086
99.30884	-2.996298	4.66655778995
99.298272	-2.981661	4.44652008441
99.287705	-2.967023	4.01581505479
99.277138	-2.952385	3.49952426367
99.266571	-2.937747	2.96823497229
99.256004	-2.923109	2.41907299842
99.245438	-2.908471	1.84643196547
99.234872	-2.893833	1.33656776868
100.063767	-4.010116	2.5055849641
100.053177	-3.995487	2.62542091036
100.042587	-3.980857	2.79778569613
100.031998	-3.966228	3.0042813452
100.021409	-3.951598	3.23977160538
100.010821	-3.936968	3.48739709648
100.000232	-3.922338	3.67188759436
99.989645	-3.907708	3.68043856786
99.979057	-3.893078	3.53365790436
99.96847	-3.878447	3.34816049602
99.957883	-3.863817	3.1960892452
99.947297	-3.849186	3.09629128668
99.936711	-3.834555	3.04688175785
99.926125	-3.819924	3.02667104292
99.91554	-3.805293	2.98811024872
99.904955	-3.790662	2.90142736522
99.89437	-3.776031	2.79319292429
99.883786	-3.761399	2.69393796983
99.873202	-3.746768	2.61195992231
99.862618	-3.732136	2.54610025503
99.852035	-3.717504	2.50351860618
99.841452	-3.702872	2.50513708381
99.830869	-3.68824	2.55232204749
99.820287	-3.673608	2.61859020475
99.809705	-3.658976	2.67971828267
99.799124	-3.644343	2.72507133316
99.788542	-3.629711	2.75366006888
99.777961	-3.615078	2.78405368895
99.767381	-3.600445	2.87053852931
99.756801	-3.585813	3.05933844087
99.746221	-3.57118	3.30918118487
99.735641	-3.556546	3.53750334833
99.725062	-3.541913	3.69100633068
99.714483	-3.52728	3.75903446174
99.703904	-3.512646	3.79883812532
99.693326	-3.498013	3.96048566677
99.682748	-3.483379	4.33217701675
99.67217	-3.468745	4.7873389499
99.661593	-3.454111	5.15000253011
99.651016	-3.439477	5.32426743988
99.640439	-3.424843	5.29026640746
99.629862	-3.410208	5.11347693126
99.619286	-3.395574	5.03883295601
99.60871	-3.380939	5.3119504349
99.598135	-3.366305	5.8103425935
99.58756	-3.35167	6.25711543391
99.576985	-3.337035	6.5259411731
99.56641	-3.3224	6.60630211869
99.555836	-3.307765	6.55646001447
99.545262	-3.29313	6.50188096354
99.534688	-3.278494	6.56441619207
99.524115	-3.263859	6.72226118061
99.513542	-3.249223	6.87759774451
99.502969	-3.234588	6.971297329
99.492396	-3.219952	6.99608949684
99.481824	-3.205316	6.96210073758
99.471252	-3.19068	6.87305503887
99.46068	-3.176044	6.72433770455
99.450109	-3.161408	6.5260909063
99.439538	-3.146771	6.30155139998
99.428967	-3.132135	6.06614195952
99.418397	-3.117499	5.8252506494
99.407827	-3.102862	5.58319095301
99.397257	-3.088225	5.35302385656
99.386687	-3.073588	5.14884203764
99.376118	-3.058951	4.96672223575
99.365548	-3.044314	4.79354558473
99.35498	-3.029677	4.62500048078
99.344411	-3.01504	4.46354709869
99.333843	-3.000403	4.30589785886
99.323275	-2.985765	4.12581209895
99.312707	-2.971128	3.87010845238
99.30214	-2.95649	3.51940089685
99.291572	-2.941852	3.10854578881
99.281005	-2.927215	2.67557336039
99.270439	-2.912577	2.23927468429
99.259872	-2.897939	1.82630415705
99.249306	-2.883301	1.51444429782
100.078209	-3.999572	2.30549168745
100.067619	-3.984943	2.40711574734
100.057029	-3.970313	2.55518249278
100.04644	-3.955684	2.73178906775
100.035851	-3.941054	2.92026680472
100.025262	-3.926425	3.09627762464
100.014674	-3.911795	3.2173161997
100.004086	-3.897165	3.24562949981
99.993498	-3.882535	3.18892141159
99.982911	-3.867905	3.09169600014
99.972324	-3.853274	2.99418643171
99.961738	-3.838644	2.9164853636
99.951152	-3.824013	2.86284744182
99.940566	-3.809382	2.82562342742
99.92998	-3.794751	2.78944994985
99.919395	-3.78012	2.74493004937
99.908811	-3.765489	2.69643307303
99.898226	-3.750858	2.6530226489
99.887642	-3.736227	2.61977713247
99.877058	-3.721595	2.59961343559
99.866475	-3.706963	2.59798924757
99.855892	-3.692332	2.62191056594
99.845309	-3.6777	2.67104755945
99.834727	-3.663068	2.73677744021
99.824145	-3.648436	2.80919167731
99.813563	-3.633803	2.88335316768
99.802982	-3.619171	2.96041523739
99.792401	-3.604538	3.05200679493
99.78182	-3.589906	3.17876849128
99.77124	-3.575273	3.35344648211
99.76066	-3.56064	3.56027939707
99.75008	-3.546007	3.76756040069
99.7395	-3.531374	3.95008451955
99.728921	-3.516741	4.10571586999
99.718343	-3.502107	4.2632576564
99.707764	-3.487474	4.47211581388
99.697186	-3.47284	4.74833825618
99.686608	-3.458207	5.04521113844
99.676031	-3.443573	5.29275246966
99.665454	-3.428939	5.44400594678
99.654877	-3.414305	5.4929788311
99.6443	-3.399671	5.4894770015
99.633724	-3.385036	5.53872110819
99.623148	-3.370402	5.71686015444
99.612572	-3.355767	5.98961395645
99.601997	-3.341133	6.257881069
99.591422	-3.326498	6.45186239193
99.580847	-3.311863	6.55340063802
99.570273	-3.297228	6.58733055911
99.559699	-3.282593	6.60198344735
99.549125	-3.267958	6.63662860512
99.538551	-3.253323	6.68875458362
99.527978	-3.238687	6.73114692537
99.517405	-3.224052	6.74137278535
99.506833	-3.209416	6.71313198912
99.49626	-3.19478	6.64748738493
99.485688	-3.180145	6.54553092213
99.475117	-3.165509	6.40834941232
99.464545	-3.150873	6.24148618927
99.453974	-3.136236	6.05481623346
99.443403	-3.1216	5.85635626645
99.432832	-3.106964	5.64996013222
99.422262	-3.092327	5.43721630713
99.411692	-3.077691	5.22027225199
99.401122	-3.063054	5.00067008224
99.390553	-3.048417	4.77718746339
99.379984	-3.03378	4.54912576427
99.369415	-3.019144	4.3181800055
99.358846	-3.004506	4.08713459351
99.348278	-2.989869	3.85514050405
99.337709	-2.975232	3.61322828631
99.327142	-2.960595	3.3464276388
99.316574	-2.945957	3.04849270882
99.306007	-2.93132	2.72698708943
99.29544	-2.916682	2.39577532825
99.284873	-2.902044	2.07292587532
99.274306	-2.887406	1.78777501466
99.26374	-2.872768	1.58815724368
100.092651	-3.989027	2.0575772911
100.082061	-3.974398	2.15337454114
100.071471	-3.959769	2.2903344452
100.060881	-3.94514	2.44541658812
100.050292	-3.930511	2.59882163349
100.039704	-3.915881	2.73190414806
100.029115	-3.901251	2.82515916881
100.018527	-3.886622	2.86650882419
100.007939	-3.871992	2.85881885111
99.997352	-3.857362	2.81815286899
99.986765	-3.842731	2.76183557115
99.976179	-3.828101	2.70285837887
99.965592	-3.813471	2.64952399522
99.955006	-3.79884	2.60901685414
99.944421	-3.784209	2.58614963625
99.933836	-3.769578	2.58077575758
99.923251	-3.754947	2.5865977154
99.912666	-3.740316	2.5983129498
99.902082	-3.725685	2.61489549471
99.891498	-3.711054	2.63870046429
99.880915	-3.696422	2.67277249521
99.870332	-3.681791	2.719556843
99.859749	-3.667159	2.7799853595
99.849166	-3.652527	2.8545441641
99.838584	-3.637895	2.94384428719
99.828002	-3.623263	3.04839530078
99.817421	-3.608631	3.16821787518
99.80684	-3.593998	3.3039229942
99.796259	-3.579366	3.45715056969
99.785678	-3.564733	3.63074798638
99.775098	-3.550101	3.82478284223
99.764518	-3.535468	4.03526501809
99.753939	-3.520835	4.25585874934
99.74336	-3.506202	4.48385735802
99.732781	-3.491569	4.71823928846
99.722202	-3.476935	4.95472582969
99.711624	-3.462302	5.18066753289
99.701046	-3.447668	5.38496580879
99.690469	-3.433035	5.55951493249
99.679891	-3.418401	5.7004978764
99.669314	-3.403767	5.80913147173
99.658738	-3.389133	5.89905936607
99.648161	-3.374499	5.99135980697
99.637585	-3.359864	6.10415472641
99.62701	-3.34523	6.23704401302
99.616434	-3.330596	6.3753880349
99.605859	-3.315961	6.50038335008
99.595284	-3.301326	6.60135962621
99.58471	-3.286691	6.674792512
99.574135	-3.272057	6.71754327064
99.563562	-3.257422	6.72357597546
99.552988	-3.242786	6.69334904542
99.542415	-3.228151	6.63657837644
99.531842	-3.213516	6.56275383327
99.521269	-3.19888	6.47466199165
99.510696	-3.184245	6.3719022116
99.500124	-3.169609	6.25362675568
99.489552	-3.154973	6.12052234133
99.478981	-3.140337	5.97410525162
99.46841	-3.125701	5.81706357363
99.457839	-3.111065	5.65203596257
99.447268	-3.096429	5.47936310699
99.436697	-3.081793	5.29487323312
99.426127	-3.067156	5.08945881497
99.415557	-3.05252	4.85478394191
99.404988	-3.037883	4.5900954852
99.394418	-3.023246	4.30430293298
99.383849	-3.00861	4.00716326888
99.373281	-2.993973	3.70527678734
99.362712	-2.979336	3.4049468679
99.352144	-2.964698	3.1159370348
99.341576	-2.950061	2.84806204613
99.331008	-2.935424	2.59924919194
99.320441	-2.920786	2.3585993521
99.309874	-2.906149	2.1197922203
99.299307	-2.891511	1.89193112784
99.28874	-2.876873	1.69753099352
99.278174	-2.862236	1.56738829312
100.107092	-3.978483	1.76193361127
100.096502	-3.963854	1.86983894111
100.085912	-3.949225	2.01524030563
100.075323	-3.934596	2.16303038768
100.064733	-3.919967	2.29483457481
100.054145	-3.905337	2.40117501383
100.043556	-3.890708	2.47861651551
100.032968	-3.876078	2.5290081729
100.02238	-3.861448	2.55412933628
100.011793	-3.846818	2.55329230251
100.001206	-3.832188	2.52706254621
99.990619	-3.817558	2.47987118893
99.980033	-3.802928	2.42138660403
99.969447	-3.788298	2.37347322916
99.958861	-3.773667	2.36567016263
99.948276	-3.759036	2.40661832498
99.937691	-3.744405	2.47133758887
99.927106	-3.729775	2.5380088123
99.916522	-3.715143	2.60208532933
99.905938	-3.700512	2.66702080643
99.895354	-3.685881	2.7347824143
99.884771	-3.671249	2.80385506455
99.874188	-3.656618	2.87574452097
99.863605	-3.641986	2.95957682056
99.853023	-3.627354	3.06642902025
99.842441	-3.612722	3.20197802788
99.83186	-3.59809	3.36458825655
99.821278	-3.583458	3.54203802132
99.810698	-3.568826	3.71730053825
99.800117	-3.554193	3.88835838575
99.789537	-3.539561	4.07461621596
99.778957	-3.524928	4.29539769264
99.768377	-3.510295	4.55801445894
99.757798	-3.495662	4.85871757188
99.747219	-3.481029	5.17314721886
99.73664	-3.466396	5.44775141372
99.726062	-3.451763	5.63615419919
99.715484	-3.437129	5.75777557027
99.704906	-3.422496	5.86913039749
99.694329	-3.407862	6.00358807332
99.683752	-3.393229	6.16355338925
99.673175	-3.378595	6.32589694774
99.662598	-3.363961	6.44185242374
99.652022	-3.349327	6.48579024942
99.641446	-3.334692	6.49466990677
99.630871	-3.320058	6.52280416747
99.620296	-3.305424	6.58831436848
99.609721	-3.290789	6.68794613524
99.599146	-3.276154	6.80004653699
99.588572	-3.26152	6.87429521549
99.577998	-3.246885	6.8486919713
99.567424	-3.23225	6.72532035395
99.556851	-3.217615	6.56366248454
99.546277	-3.202979	6.40558785246
99.535705	-3.188344	6.25815768316
99.525132	-3.173709	6.1176674627
99.51456	-3.159073	5.9812700074
99.503988	-3.144438	5.84888412639
99.493416	-3.129802	5.7181189196
99.482845	-3.115166	5.58569126246
99.472274	-3.10053	5.45142072827
99.461703	-3.085894	5.31455242696
99.451132	-3.071258	5.16553973
99.440562	-3.056621	4.97958078827
99.429992	-3.041985	4.72957239473
99.419422	-3.027349	4.41555065953
99.408853	-3.012712	4.06476567964
99.398284	-2.998075	3.69851171984
99.387715	-2.983438	3.32379387224
99.377146	-2.968802	2.9496624944
99.366578	-2.954165	2.60710712652
99.35601	-2.939527	2.34248093103
99.345442	-2.92489	2.15679428827
99.334875	-2.910253	2.00209909887
99.324307	-2.895616	1.84709546602
99.31374	-2.880978	1.69432867426
99.303174	-2.866341	1.56201785988
99.292607	-2.851703	1.4760260398
100.121534	-3.967938	1.41997075491
100.110943	-3.953309	1.57535257315
100.100353	-3.938681	1.7513447914
100.089764	-3.924052	1.90291484285
100.079174	-3.909423	2.02039773098
100.068585	-3.894793	2.1035711093
100.057997	-3.880164	2.16331716496
100.047408	-3.865534	2.22041220422
100.036821	-3.850905	2.27804592902
100.026233	-3.836275	2.31378235764
100.015646	-3.821645	2.31324691329
100.005059	-3.807015	2.27302716092
99.994473	-3.792385	2.1971094541
99.983886	-3.777755	2.11787652259
99.973301	-3.763124	2.11982634019
99.962715	-3.748494	2.2300561018
99.95213	-3.733863	2.36397920482
99.941545	-3.719232	2.48210072558
99.930961	-3.704602	2.58674760699
99.920377	-3.689971	2.68830140084
99.909793	-3.675339	2.78986871206
99.89921	-3.660708	2.88000433936
99.888627	-3.646077	2.95471777084
99.878044	-3.631445	3.03950832337
99.867462	-3.616813	3.15972288528
99.85688	-3.602182	3.32570464191
99.846298	-3.58755	3.53753448693
99.835717	-3.572918	3.76990395535
99.825136	-3.558286	3.96748546824
99.814555	-3.543653	4.11620074627
99.803975	-3.529021	4.28157521695
99.793395	-3.514388	4.50852303591
99.782815	-3.499756	4.81187032781
99.772236	-3.485123	5.19460227089
99.761656	-3.47049	5.62748116558
99.751078	-3.455857	5.98235428499
99.740499	-3.441224	6.11214464009
99.729921	-3.426591	6.1104691696
99.719343	-3.411957	6.14701944881
99.708766	-3.397324	6.27462109845
99.698189	-3.38269	6.49614657773
99.687612	-3.368056	6.76520575359
99.677035	-3.353423	6.92670216306
99.666459	-3.338789	6.86053977951
99.655883	-3.324155	6.71280723114
99.645307	-3.30952	6.63097699143
99.634732	-3.294886	6.64366503763
99.624157	-3.280252	6.74966228969
99.613582	-3.265617	6.92888338003
99.603008	-3.250983	7.08408409778
99.592434	-3.236348	7.02194880752
99.58186	-3.221713	6.75613633163
99.571286	-3.207078	6.47525952388
99.560713	-3.192443	6.23961393896
99.55014	-3.177808	6.0418926177
99.539568	-3.163173	5.86785939121
99.528995	-3.148537	5.7129789699
99.518423	-3.133902	5.5822234001
99.507851	-3.119266	5.46699442485
99.49728	-3.10463	5.35503804187
99.486709	-3.089994	5.247420196
99.476138	-3.075359	5.1482935337
99.465567	-3.060723	5.05067773493
99.454997	-3.046086	4.90861268682
99.444427	-3.03145	4.64147869723
99.433857	-3.016814	4.25474893257
99.423287	-3.002177	3.82993512175
99.412718	-2.987541	3.39843236244
99.402149	-2.972904	2.95589423337
99.39158	-2.958267	2.49703781455
99.381012	-2.943631	2.06672066662
99.370444	-2.928994	1.80885292587
99.359876	-2.914357	1.72859971149
99.349308	-2.899719	1.66990448983
99.338741	-2.885082	1.58805141006
99.328174	-2.870445	1.49153343372
99.317607	-2.855807	1.39804468498
99.30704	-2.84117	1.3333359153
100.135975	-3.957393	1.07488116523
100.125384	-3.942764	1.32369441963
100.114794	-3.928136	1.5326179395
100.104204	-3.913507	1.68600341307
100.093615	-3.898878	1.78957178024
100.083026	-3.884249	1.84755504015
100.072437	-3.86962	1.87510725383
100.061849	-3.854991	1.93604366507
100.051261	-3.840361	2.04152908173
100.040673	-3.825732	2.11613420315
100.030086	-3.811102	2.14275154939
100.019499	-3.796472	2.11547625309
100.008912	-3.781842	2.02728969473
99.998326	-3.767212	1.88325505718
99.98774	-3.752582	1.87626506599
99.977155	-3.737951	2.09949826645
99.966569	-3.723321	2.2919267909
99.955985	-3.70869	2.44329427967
99.9454	-3.694059	2.57198705054
99.934816	-3.679429	2.69797695423
99.924232	-3.664798	2.83378648638
99.913649	-3.650166	2.94819858132
99.903065	-3.635535	3.00240425282
99.892483	-3.620904	3.07745123874
99.8819	-3.606272	3.20446450439
99.871318	-3.591641	3.39353133266
99.860736	-3.577009	3.65308400516
99.850155	-3.562377	3.97155274227
99.839574	-3.547745	4.19919447716
99.828993	-3.533113	4.27575849592
99.818412	-3.518481	4.40875845724
99.807832	-3.503848	4.6356932809
99.797252	-3.489216	4.96625533303
99.786673	-3.474583	5.41434220823
99.776094	-3.45995	5.988874276
99.765515	-3.445317	6.5408637853
99.754936	-3.430685	6.50844158664
99.744358	-3.416051	6.34352664604
99.73378	-3.401418	6.31118237741
99.723203	-3.386785	6.42931348382
99.712625	-3.372151	6.70155499187
99.702048	-3.357518	7.11879412029
99.691472	-3.342884	7.43008925921
99.680895	-3.32825	7.12423405029
99.670319	-3.313616	6.80551707859
99.659744	-3.298982	6.63143692597
99.649168	-3.284348	6.59842481881
99.638593	-3.269714	6.70151345103
99.628018	-3.25508	6.94279732695
99.617444	-3.240445	7.28012965353
99.606869	-3.225811	7.14535001734
99.596295	-3.211176	6.68762784022
99.585722	-3.196541	6.31539999092
99.575148	-3.181906	6.03328774667
99.564575	-3.167271	5.80899819981
99.554003	-3.152636	5.61553465902
99.54343	-3.138001	5.44003166964
99.532858	-3.123365	5.32029909862
99.522286	-3.10873	5.21939770859
99.511714	-3.094094	5.11947860513
99.501143	-3.079459	5.02748709043
99.490572	-3.064823	4.9554577501
99.480001	-3.050187	4.91352685843
99.469431	-3.035551	4.86980160895
99.458861	-3.020915	4.57259549439
99.448291	-3.006279	4.07432309124
99.437721	-2.991643	3.58536974495
99.427152	-2.977006	3.11139639007
99.416583	-2.96237	2.62997468857
99.406014	-2.947733	2.11666951362
99.395445	-2.933096	1.57081120419
99.384877	-2.918459	1.33100405528
99.374309	-2.903823	1.37992159368
99.363741	-2.889186	1.39156297496
99.353174	-2.874548	1.35972566267
99.342607	-2.859911	1.30186631538
99.33204	-2.845274	1.23278516757
99.321473	-2.830637	1.16681540869
100.150415	-3.946848	0.959740105538
100.139824	-3.932219	1.19689049322
100.129234	-3.917591	1.39130250961
100.118644	-3.902962	1.52862109195
100.108055	-3.888334	1.61621792285
100.097466	-3.873705	1.65887707585
100.086877	-3.859076	1.66538798636
100.076288	-3.844446	1.7301022635
100.0657	-3.829817	1.87187761981
100.055113	-3.815188	1.97565869555
100.044525	-3.800558	2.03152298632
100.033938	-3.785929	2.03452332591
100.023351	-3.771299	1.97935037971
100.012765	-3.756669	1.87985839255
100.002179	-3.742039	1.90129828806
99.991594	-3.727409	2.0976716282
99.981008	-3.712778	2.2843292546
99.970423	-3.698148	2.43196955038
99.959839	-3.683517	2.5573165357
99.949254	-3.668886	2.68100948728
99.938671	-3.654256	2.81804499472
99.928087	-3.639625	2.93855170623
99.917504	-3.624993	2.98205037004
99.906921	-3.610362	3.05506372205
99.896338	-3.595731	3.18422724784
99.885756	-3.581099	3.37863051062
99.875174	-3.566468	3.64778607443
99.864593	-3.551836	3.98596131206
99.854011	-3.537204	4.22463539592
99.84343	-3.522572	4.28829452683
99.83285	-3.50794	4.41954203495
99.82227	-3.493308	4.64833686383
99.81169	-3.478676	4.98151594999
99.80111	-3.464043	5.42971033245
99.790531	-3.449411	5.99728849484
99.779952	-3.434778	6.5297829556
99.769373	-3.420145	6.50823632828
99.758795	-3.405512	6.33841833225
99.748217	-3.390879	6.29656925724
99.737639	-3.376246	6.40306935446
99.727062	-3.361613	6.65890645662
99.716485	-3.346979	7.043823792
99.705908	-3.332346	7.30035892351
99.695331	-3.317712	7.01531238956
99.684755	-3.303078	6.67689136628
99.674179	-3.288444	6.47279407251
99.663604	-3.27381	6.40622631819
99.653029	-3.259176	6.47217763436
99.642454	-3.244542	6.66448739603
99.631879	-3.229908	6.90529495834
99.621305	-3.215273	6.78127882396
99.610731	-3.200639	6.38535570583
99.600157	-3.186004	6.03503157719
99.589583	-3.171369	5.76493052848
99.57901	-3.156734	5.55041674145
99.568437	-3.142099	5.36673040501
99.557865	-3.127464	5.20494933651
99.547293	-3.112829	5.08227528182
99.536721	-3.098194	4.97805410736
99.526149	-3.083558	4.87531684829
99.515577	-3.068923	4.78000031807
99.505006	-3.054287	4.70480419151
99.494435	-3.039651	4.66098921057
99.483865	-3.025016	4.62682356795
99.473295	-3.01038	4.3184998103
99.462725	-2.995744	3.80565561242
99.452155	-2.981107	3.30956388609
99.441585	-2.966471	2.8348631845
99.431016	-2.951835	2.36263257464
99.420447	-2.937198	1.88003008729
99.409879	-2.922562	1.42535416
99.39931	-2.907925	1.1994052247
99.388742	-2.893288	1.18174146767
99.378174	-2.878652	1.18901926326
99.367607	-2.864015	1.17333016117
99.357039	-2.849378	1.13908473738
99.346472	-2.83474	1.09570031132
99.335905	-2.820103	1.05702504343
100.164855	-3.936302	1.08568179818
100.154264	-3.921674	1.20215931719
100.143674	-3.907046	1.33073112271
100.133084	-3.892417	1.43143702402
100.122495	-3.877789	1.50038727624
100.111905	-3.86316	1.54351230838
100.101316	-3.848531	1.58123748528
100.090728	-3.833902	1.65963298161
100.08014	-3.819273	1.77910715313
100.069552	-3.804644	1.89423412454
100.058964	-3.790014	1.98084005108
100.048377	-3.775385	2.03001084817
100.03779	-3.760755	2.04179998761
100.027204	-3.746125	2.04268170476
100.016618	-3.731496	2.09589660743
100.006032	-3.716865	2.21276190986
99.995447	-3.702235	2.34007447143
99.984862	-3.687605	2.44891451804
99.974277	-3.672975	2.54314570713
99.963693	-3.658344	2.63565263696
99.953109	-3.643713	2.73222876342
99.942525	-3.629082	2.8162681978
99.931942	-3.614452	2.88375744487
99.921359	-3.59982	2.96809335945
99.910776	-3.585189	3.09614849095
99.900194	-3.570558	3.27795584931
99.889612	-3.555927	3.51377818952
99.87903	-3.541295	3.77541377367
99.868449	-3.526663	3.9863261241
99.857868	-3.512031	4.13778071106
99.847287	-3.497399	4.3082692453
99.836707	-3.482767	4.54416344835
99.826127	-3.468135	4.85795990776
99.815547	-3.453503	5.24686218468
99.804967	-3.43887	5.67662198346
99.794388	-3.424238	6.00917225838
99.78381	-3.409605	6.11372640177
99.773231	-3.394972	6.09309397306
99.762653	-3.38034	6.10097859716
99.752075	-3.365707	6.1953189977
99.741498	-3.351073	6.37824338003
99.730921	-3.33644	6.59531070106
99.720344	-3.321807	6.68494275216
99.709767	-3.307173	6.55239940731
99.699191	-3.29254	6.33065018502
99.688615	-3.277906	6.15441367874
99.678039	-3.263272	6.06621512285
99.667464	-3.248638	6.07041190833
99.656889	-3.234004	6.14482022981
99.646314	-3.21937	6.20068288721
99.63574	-3.204736	6.10553521341
99.625166	-3.190101	5.88067378267
99.614592	-3.175467	5.63857724816
99.604018	-3.160832	5.43276960241
99.593445	-3.146197	5.2626484424
99.582872	-3.131563	5.1146248064
99.572299	-3.116928	4.98096120597
99.561727	-3.102293	4.8591170488
99.551155	-3.087657	4.74171164307
99.540583	-3.073022	4.62288855465
99.530011	-3.058387	4.50549287535
99.51944	-3.043751	4.39572898633
99.508869	-3.029116	4.28924991327
99.498299	-3.01448	4.13738831998
99.487728	-2.999844	3.84689466022
99.477158	-2.985208	3.43825839445
99.466588	-2.970572	2.99764732517
99.456019	-2.955936	2.56165583167
99.445449	-2.9413	2.13499541457
99.43488	-2.926664	1.72690891164
99.424311	-2.912027	1.38228702819
99.413743	-2.897391	1.16803820482
99.403175	-2.882754	1.07749669956
99.392607	-2.868117	1.04383346186
99.382039	-2.85348	1.0223379008
99.371472	-2.838844	1.00167793636
99.360905	-2.824207	0.98532887868
99.350338	-2.809569	0.989018721121
100.179295	-3.925756	1.21373980251
100.168704	-3.911128	1.25862704107
100.158114	-3.8965	1.32113366931
100.147524	-3.881872	1.37798410095
100.136934	-3.867244	1.42423204531
100.126345	-3.852615	1.4665314997
100.115756	-3.837986	1.52162162911
100.105167	-3.823358	1.60798752773
100.094579	-3.808729	1.72532266135
100.083991	-3.7941	1.85471215184
100.073403	-3.77947	1.97725167607
100.062816	-3.764841	2.08067849801
100.052229	-3.750211	2.16149737579
100.041642	-3.735582	2.22831950066
100.031056	-3.720952	2.29736404087
100.02047	-3.706322	2.37011363679
100.009885	-3.691692	2.43549528745
99.9993	-3.677062	2.48712988126
99.988715	-3.662432	2.5303521259
99.978131	-3.647801	2.5744038566
99.967546	-3.633171	2.6243876133
99.956963	-3.61854	2.67951468476
99.946379	-3.603909	2.74373676566
99.935796	-3.589278	2.83023097633
99.925213	-3.574647	2.95148207203
99.914631	-3.560016	3.11237386768
99.904049	-3.545385	3.30812501377
99.893467	-3.530754	3.51878723351
99.882886	-3.516122	3.71837176602
99.872305	-3.50149	3.90554317717
99.861724	-3.486859	4.1072869055
99.851143	-3.472227	4.34746838531
99.840563	-3.457595	4.63382942029
99.829983	-3.442963	4.95540393406
99.819404	-3.42833	5.27491360444
99.808825	-3.413698	5.52527869506
99.798246	-3.399065	5.66578259259
99.787667	-3.384433	5.72933371053
99.777089	-3.3698	5.78213324208
99.766511	-3.355167	5.86377622265
99.755934	-3.340534	5.97567544731
99.745356	-3.325901	6.07690326463
99.734779	-3.311268	6.09977456891
99.724203	-3.296634	6.01491184608
99.713626	-3.282001	5.86753931761
99.70305	-3.267367	5.72130437169
99.692474	-3.252734	5.61444257665
99.681899	-3.2381	5.5569645259
99.671324	-3.223466	5.53426935248
99.660749	-3.208832	5.50452129994
99.650174	-3.194198	5.4268831808
99.6396	-3.179564	5.3045532491
99.629026	-3.164929	5.17250315465
99.618453	-3.150295	5.05420865809
99.607879	-3.13566	4.95112040277
99.597306	-3.121025	4.85352269432
99.586733	-3.106391	4.75141538324
99.576161	-3.091756	4.63748963357
99.565589	-3.077121	4.50868055777
99.555017	-3.062486	4.36649975664
99.544445	-3.04785	4.2156479115
99.533874	-3.033215	4.05910782105
99.523303	-3.01858	3.88839452647
99.512732	-3.003944	3.67634056723
99.502161	-2.989308	3.39357273749
99.491591	-2.974673	3.04729437588
99.481021	-2.960037	2.66945263129
99.470452	-2.945401	2.28635185548
99.459882	-2.930765	1.91359238532
99.449313	-2.916129	1.56973456668
99.438744	-2.901492	1.28486158568
99.428176	-2.886856	1.0864191647
99.417607	-2.872219	0.972829814926
99.407039	-2.857583	0.916107555964
99.396471	-2.842946	0.888710655938
99.385904	-2.828309	0.876962589358
99.375337	-2.813672	0.880375680546
99.36477	-2.799035	0.908147861885
100.193735	-3.915211	1.31948740507
100.183144	-3.900583	1.32149047934
100.172553	-3.885955	1.33248681766
100.161963	-3.871327	1.34668137162
100.151373	-3.856698	1.36485795155
100.140784	-3.84207	1.39513292501
100.130194	-3.827441	1.45101230238
100.119606	-3.812813	1.54438816318
100.109017	-3.798184	1.67589919137
100.098429	-3.783555	1.83381240707
100.087842	-3.768926	2.00232750238
100.077254	-3.754297	2.16668688018
100.066667	-3.739668	2.31438482099
100.056081	-3.725038	2.43320392883
100.045494	-3.710408	2.51338658716
100.034908	-3.695779	2.55101535098
100.024323	-3.681149	2.55416954099
100.013738	-3.666519	2.53785608707
100.003153	-3.651889	2.51721567969
99.992568	-3.637259	2.50370247301
99.981984	-3.622628	2.5053590676
99.9714	-3.607998	2.52819245127
99.960817	-3.593367	2.5770693378
99.950233	-3.578736	2.6560422286
99.93965	-3.564105	2.76623047896
99.929068	-3.549474	2.90609783588
99.918486	-3.534843	3.07063494825
99.907904	-3.520212	3.25121315549
99.897322	-3.505581	3.44001852021
99.886741	-3.490949	3.63755933528
99.87616	-3.476317	3.85203990566
99.86558	-3.461686	4.0905808783
99.854999	-3.447054	4.35283097923
99.844419	-3.432422	4.62646308237
99.83384	-3.41779	4.88523012469
99.823261	-3.403158	5.09594895398
99.812682	-3.388525	5.24164793995
99.802103	-3.373893	5.33468439253
99.791525	-3.35926	5.40431915842
99.780947	-3.344627	5.47178433725
99.770369	-3.329995	5.537502841
99.759792	-3.315362	5.5792382647
99.749214	-3.300729	5.56786294352
99.738638	-3.286095	5.49148926749
99.728061	-3.271462	5.36791763658
99.717485	-3.256829	5.22770411237
99.706909	-3.242195	5.09578807031
99.696334	-3.227561	4.98361256598
99.685758	-3.212928	4.89258681953
99.675183	-3.198294	4.81764904682
99.664609	-3.18366	4.75591464291
99.654034	-3.169026	4.70763296403
99.64346	-3.154391	4.67396885916
99.632887	-3.139757	4.65047337844
99.622313	-3.125123	4.62822305695
99.61174	-3.110488	4.59348333496
99.601167	-3.095854	4.53058680937
99.590595	-3.081219	4.42805385313
99.580022	-3.066584	4.28562328397
99.56945	-3.051949	4.11392541669
99.558878	-3.037314	3.92426899165
99.548307	-3.022679	3.72199895625
99.537736	-3.008043	3.50364870745
99.527165	-2.993408	3.25957905742
99.516594	-2.978772	2.98160827085
99.506024	-2.964137	2.67277146578
99.495454	-2.949501	2.344155827
99.484884	-2.934865	2.00883437966
99.474315	-2.920229	1.68079199212
99.463745	-2.905593	1.37890730143
99.453176	-2.890957	1.12756759327
99.442608	-2.876321	0.946172224222
99.432039	-2.861685	0.835971478215
99.421471	-2.847048	0.779708670761
99.410903	-2.832412	0.756283280476
99.400336	-2.817775	0.752878957954
99.389768	-2.803138	0.767649105938
99.379201	-2.788501	0.806505086185
100.208174	-3.904664	1.41451464815
100.197583	-3.890037	1.38302371804
100.186992	-3.875409	1.34896080516
100.176402	-3.860781	1.32055290452
100.165812	-3.846153	1.30434835942
100.155222	-3.831525	1.31054194716
100.144633	-3.816896	1.3553300677
100.134044	-3.802268	1.45450727805
100.123456	-3.787639	1.61140381508
100.112868	-3.77301	1.81243686318
100.10228	-3.758382	2.0391360761
100.091692	-3.743753	2.27514003268
100.081105	-3.729123	2.50025469177
100.070519	-3.714494	2.67998913375
100.059932	-3.699865	2.77305474349
100.049346	-3.685235	2.76625557069
100.03876	-3.670605	2.69144667038
100.028175	-3.655976	2.59316865467
100.01759	-3.641346	2.49797960228
100.007005	-3.626715	2.41896267197
99.996421	-3.612085	2.36661217264
99.985837	-3.597455	2.35265003366
99.975253	-3.582824	2.38321672855
99.96467	-3.568194	2.45368823804
99.954087	-3.553563	2.55358694182
99.943505	-3.538932	2.67506073039
99.932922	-3.524301	2.81430700389
99.92234	-3.50967	2.97107357131
99.911759	-3.495039	3.14754362284
99.901177	-3.480408	3.34571339044
99.890596	-3.465776	3.56405548837
99.880016	-3.451145	3.79908651651
99.869435	-3.436513	4.04517507079
99.858855	-3.421881	4.29146533906
99.848276	-3.407249	4.51982678265
99.837696	-3.392617	4.70919183605
99.827117	-3.377985	4.84745356283
99.816538	-3.363352	4.94073473435
99.80596	-3.34872	5.00689227537
99.795382	-3.334087	5.05936670448
99.784804	-3.319455	5.09820964027
99.774227	-3.304822	5.11035132469
99.763649	-3.290189	5.07853796127
99.753073	-3.275556	4.9943703159
99.742496	-3.260923	4.86641620769
99.73192	-3.24629	4.71197784489
99.721344	-3.231656	4.54602668842
99.710768	-3.217023	4.37884783193
99.700193	-3.202389	4.22436254419
99.689618	-3.187755	4.10884090372
99.679043	-3.173122	4.06314557465
99.668469	-3.158488	4.08964893504
99.657894	-3.143854	4.15835838093
99.64732	-3.129219	4.23767753164
99.636747	-3.114585	4.30876569721
99.626174	-3.099951	4.35262894565
99.615601	-3.085316	4.34071644793
99.605028	-3.070682	4.24934013458
99.594456	-3.056047	4.08303281578
99.583883	-3.041412	3.8716734824
99.573312	-3.026777	3.63905179619
99.56274	-3.012142	3.3942460685
99.552169	-2.997507	3.13823793943
99.541598	-2.982872	2.87213234864
99.531027	-2.968236	2.59885664751
99.520457	-2.953601	2.31902594508
99.509886	-2.938965	2.0305328671
99.499317	-2.924329	1.73350522374
99.488747	-2.909694	1.43572702756
99.478178	-2.895058	1.1542899452
99.467609	-2.880422	0.917134286401
99.45704	-2.865786	0.751936916074
99.446471	-2.851149	0.663397036206
99.435903	-2.836513	0.628115647064
99.425335	-2.821877	0.619627568522
99.414767	-2.80724	0.625202382196
99.4042	-2.792604	0.644348167327
99.393633	-2.777967	0.68496988327
100.222613	-3.894118	1.51487299413
100.212021	-3.879491	1.44455131983
100.201431	-3.864863	1.36224960071
100.19084	-3.850235	1.28960763912
100.18025	-3.835607	1.23302034381
100.169661	-3.820979	1.20155161789
100.159071	-3.806351	1.21971738738
100.148482	-3.791723	1.32162342723
100.137894	-3.777094	1.51709586352
100.127305	-3.762466	1.77649060177
100.116718	-3.747837	2.07144934219
100.10613	-3.733208	2.39022945464
100.095543	-3.718579	2.71692599167
100.084956	-3.70395	2.99370129766
100.07437	-3.689321	3.10948418359
100.063783	-3.674691	3.02446360843
100.053198	-3.660062	2.83656834009
100.042612	-3.645432	2.64023171303
100.032027	-3.630802	2.46368580725
100.021442	-3.616172	2.31235492588
100.010858	-3.601542	2.1966707274
100.000274	-3.586912	2.14063337664
99.98969	-3.572282	2.15860982302
99.979107	-3.557651	2.23003258031
99.968524	-3.543021	2.3253264675
99.957941	-3.52839	2.43063964095
99.947358	-3.513759	2.54431978291
99.936776	-3.499128	2.67425296774
99.926195	-3.484497	2.83528187405
99.915613	-3.469866	3.03342397703
99.905032	-3.455235	3.25597409845
99.894451	-3.440603	3.48926962431
99.883871	-3.425972	3.72615074839
99.873291	-3.41134	3.959893467
99.862711	-3.396708	4.17755766762
99.852132	-3.382076	4.35742305339
99.841552	-3.367444	4.48126959715
99.830974	-3.352812	4.55643155724
99.820395	-3.33818	4.60629008228
99.809817	-3.323547	4.64351766859
99.799239	-3.308915	4.66810946028
99.788661	-3.294282	4.66892350181
99.778084	-3.279649	4.62639441773
99.767507	-3.265016	4.52679565175
99.75693	-3.250383	4.37903854665
99.746354	-3.23575	4.19917102658
99.735778	-3.221117	3.99403742419
99.725202	-3.206484	3.76590692282
99.714627	-3.19185	3.52981431087
99.704052	-3.177217	3.34792993856
99.693477	-3.162583	3.31712661455
99.682902	-3.147949	3.44660631168
99.672328	-3.133315	3.63763936349
99.661754	-3.118681	3.82714613811
99.65118	-3.104047	4.00135668364
99.640607	-3.089413	4.14551212505
99.630034	-3.074779	4.2070860299
99.619461	-3.060144	4.12061764589
99.608889	-3.04551	3.90420706294
99.598316	-3.030875	3.63801082465
99.587744	-3.01624	3.36022953842
99.577173	-3.001605	3.07608803874
99.566601	-2.98697	2.78498792451
99.55603	-2.972335	2.49660629687
99.545459	-2.9577	2.2294370251
99.534889	-2.943064	1.98292791521
99.524319	-2.928429	1.7349671686
99.513749	-2.913793	1.4704740759
99.503179	-2.899158	1.19018511116
99.49261	-2.884522	0.906888851482
99.48204	-2.869886	0.658390411308
99.471471	-2.85525	0.505637625877
99.460903	-2.840614	0.462650449454
99.450334	-2.825978	0.469285592791
99.439766	-2.811342	0.484536011553
99.429199	-2.796705	0.49845575408
99.418631	-2.782069	0.513934237696
99.408064	-2.767432	0.544528569066
100.237051	-3.883571	1.62860332302
100.22646	-3.868944	1.49589594928
100.215869	-3.854317	1.36168059449
100.205278	-3.839689	1.24893181811
100.194688	-3.825061	1.15227252924
100.184099	-3.810433	1.06976094849
100.173509	-3.795805	1.03257026056
100.16292	-3.781177	1.12999876865
100.152331	-3.766549	1.39049239196
100.141743	-3.75192	1.72206935885
100.131155	-3.737292	2.08255200838
100.120567	-3.722663	2.47792026616
100.10998	-3.708034	2.92021442611
100.099393	-3.693405	3.36456987196
100.088807	-3.678776	3.53745057652
100.07822	-3.664147	3.28542580522
100.067635	-3.649518	2.94943676722
100.057049	-3.634888	2.65702943564
100.046464	-3.620259	2.40700240336
100.035879	-3.605629	2.18442670062
100.025294	-3.590999	1.9911776565
100.01471	-3.576369	1.88111177938
100.004126	-3.561739	1.90813011284
99.993543	-3.547108	1.99987534237
99.98296	-3.532478	2.09643891377
99.972377	-3.517847	2.18634463365
99.961794	-3.503217	2.27025149645
99.951212	-3.488586	2.36083367698
99.94063	-3.473955	2.50009425146
99.930049	-3.459324	2.70824966989
99.919468	-3.444693	2.93986929478
99.908887	-3.430062	3.17193526639
99.898306	-3.41543	3.40191388004
99.887726	-3.400799	3.6300591655
99.877146	-3.386167	3.85175609779
99.866567	-3.371535	4.03839906073
99.855987	-3.356903	4.13846680095
99.845408	-3.342271	4.17736786105
99.83483	-3.327639	4.20368328437
99.824251	-3.313007	4.22649197744
99.813673	-3.298375	4.24468949482
99.803096	-3.283742	4.24984819076
99.792518	-3.269109	4.21040230443
99.781941	-3.254477	4.08729352316
99.771365	-3.239844	3.91116463223
99.760788	-3.225211	3.70656569271
99.750212	-3.210578	3.46918570392
99.739636	-3.195945	3.18609730342
99.72906	-3.181311	2.85010374668
99.718485	-3.166678	2.53254172433
99.70791	-3.152044	2.51189843032
99.697336	-3.137411	2.81616764297
99.686761	-3.122777	3.13983124387
99.676187	-3.108143	3.4268855698
99.665613	-3.093509	3.69399979905
99.65504	-3.078875	3.95579256578
99.644467	-3.064241	4.14357282223
99.633894	-3.049606	4.03820517845
99.623321	-3.034972	3.72194914926
99.612749	-3.020337	3.39624566011
99.602177	-3.005703	3.0825621437
99.591605	-2.991068	2.76892533384
99.581034	-2.976433	2.44368721105
99.570462	-2.961798	2.12114670774
99.559892	-2.947163	1.86341317343
99.549321	-2.932528	1.67070509323
99.538751	-2.917893	1.46955584416
99.52818	-2.903257	1.23597350106
99.517611	-2.888622	0.968852120002
99.507041	-2.873986	0.670768863453
99.496472	-2.85935	0.369269140725
99.485903	-2.844715	0.219351821057
99.475334	-2.830079	0.267505732755
99.464766	-2.815443	0.327062671199
99.454197	-2.800807	0.366187243403
99.44363	-2.78617	0.385779821086
99.433062	-2.771534	0.390157338159
99.422494	-2.756898	0.392447488471
100.251489	-3.873025	1.69036858308
100.240898	-3.858398	1.49428146995
100.230307	-3.84377	1.33095188513
100.219716	-3.829143	1.19812645685
100.209126	-3.814515	1.0785833559
100.198536	-3.799887	0.955200961531
100.187947	-3.78526	0.828014153405
100.177358	-3.770632	0.900614548372
100.166769	-3.756003	1.27339528543
100.15618	-3.741375	1.66339565907
100.145592	-3.726747	2.06067337204
100.135005	-3.712118	2.4911197557
100.124417	-3.69749	2.98628441353
100.11383	-3.682861	3.55595914152
100.103243	-3.668232	3.85377135124
100.092657	-3.653603	3.38044665273
100.082071	-3.638973	2.95893638189
100.071486	-3.624344	2.61735309282
100.0609	-3.609715	2.32677852153
100.050315	-3.595085	2.0582243233
100.039731	-3.580455	1.79373328328
100.029146	-3.565825	1.5843480722
100.018562	-3.551195	1.6805791667
100.007979	-3.536565	1.79279868296
99.997396	-3.521935	1.88543368519
99.986813	-3.507305	1.95933269122
99.97623	-3.492674	2.01646220872
99.965648	-3.478044	2.05964670918
99.955066	-3.463413	2.15937169605
99.944484	-3.448782	2.39822685702
99.933903	-3.434151	2.63211141885
99.923322	-3.41952	2.85568802158
99.912741	-3.404889	3.07342613808
99.902161	-3.390257	3.29056545237
99.891581	-3.375626	3.51105630149
99.881001	-3.360994	3.7283695407
99.870422	-3.346362	3.78145348127
99.859843	-3.33173	3.78525107339
99.849264	-3.317098	3.79269364661
99.838686	-3.302466	3.80338227105
99.828108	-3.287834	3.81520964712
99.81753	-3.273202	3.82558189835
99.806952	-3.258569	3.8160508241
99.796375	-3.243937	3.65166986994
99.785798	-3.229304	3.45811329608
99.775222	-3.214671	3.24452356384
99.764646	-3.200038	2.99783532087
99.75407	-3.185405	2.69786669433
99.743494	-3.170772	2.32195172914
99.732919	-3.156139	1.88420270151
99.722344	-3.141505	1.87808122029
99.711769	-3.126872	2.32318210972
99.701194	-3.112238	2.71176948318
99.69062	-3.097605	3.04283391193
99.680046	-3.082971	3.35147274846
99.669473	-3.068337	3.67019851654
99.658899	-3.053703	3.99378391736
99.648326	-3.039069	3.83440753505
99.637754	-3.024434	3.4611676081
99.627181	-3.0098	3.11932945181
99.616609	-2.995165	2.80063941516
99.606037	-2.980531	2.48242350084
99.595466	-2.965896	2.14400950847
99.584894	-2.951261	1.77878814927
99.574323	-2.936626	1.53866011413
99.563753	-2.921991	1.41424194948
99.553182	-2.907356	1.25242513766
