99.685758	-3.212928	-0.215747404887	99.685758	-3.212928	4.89258681953
99.675183	-3.198294	-0.210781619164	99.675183	-3.198294	4.81764904682
99.664609	-3.18366	-0.218053269208	99.664609	-3.18366	4.75591464291
99.654034	-3.169026	-0.238133649389	99.654034	-3.169026	4.70763296403
99.64346	-3.154391	-0.269889470632	99.64346	-3.154391	4.67396885916
99.632887	-3.139757	-0.309073586298	99.632887	-3.139757	4.65047337844
99.622313	-3.125123	-0.349680483211	99.622313	-3.125123	4.62822305695
99.61174	-3.110488	-0.383670632701	99.61174	-3.110488	4.59348333496
99.601167	-3.095854	-0.401634062892	99.601167	-3.095854	4.53058680937
99.590595	-3.081219	-0.395812762127	99.590595	-3.081219	4.42805385313
99.580022	-3.066584	-0.36501980752	99.580022	-3.066584	4.28562328397
99.56945	-3.051949	-0.317185073244	99.56945	-3.051949	4.11392541669
99.558878	-3.037314	-0.262484616745	99.558878	-3.037314	3.92426899165
99.548307	-3.022679	-0.209273756283	99.548307	-3.022679	3.72199895625
99.537736	-3.008043	-0.163157815804	99.537736	-3.008043	3.50364870745
99.527165	-2.993408	-0.128320465345	99.527165	-2.993408	3.25957905742
99.516594	-2.978772	-0.107422129313	99.516594	-2.978772	2.98160827085
99.506024	-2.964137	-0.101416774776	99.506024	-2.964137	2.67277146578
99.495454	-2.949501	-0.107895207579	99.495454	-2.949501	2.344155827
99.484884	-2.934865	-0.121788461251	99.484884	-2.934865	2.00883437966
99.474315	-2.920229	-0.136631305939	99.474315	-2.920229	1.68079199212
99.463745	-2.905593	-0.144588525838	99.463745	-2.905593	1.37890730143
99.453176	-2.890957	-0.13667760323	99.453176	-2.890957	1.12756759327
99.442608	-2.876321	-0.106579328066	99.442608	-2.876321	0.946172224222
99.432039	-2.861685	-0.05431220733	99.432039	-2.861685	0.835971478215
99.421471	-2.847048	0.0138560713761	99.421471	-2.847048	0.779708670761
99.410903	-2.832412	0.0896284774258	99.410903	-2.832412	0.756283280476
99.400336	-2.817775	0.164869944776	99.400336	-2.817775	0.752878957954
99.389768	-2.803138	0.23059223416	99.389768	-2.803138	0.767649105938
99.379201	-2.788501	0.275869652863	99.379201	-2.788501	0.806505086185
100.208174	-3.904664	0.96844125922	100.208174	-3.904664	1.41451464815
100.197583	-3.890037	0.892321324392	100.197583	-3.890037	1.38302371804
100.186992	-3.875409	0.783206255639	100.186992	-3.875409	1.34896080516
100.176402	-3.860781	0.659688504904	100.176402	-3.860781	1.32055290452
100.165812	-3.846153	0.53079510932	100.165812	-3.846153	1.30434835942
100.155222	-3.831525	0.397937281363	100.155222	-3.831525	1.31054194716
100.144633	-3.816896	0.257476503178	100.144633	-3.816896	1.3553300677
100.134044	-3.802268	0.104336209021	100.134044	-3.802268	1.45450727805
100.123456	-3.787639	-0.0638607110461	100.123456	-3.787639	1.61140381508
100.112868	-3.77301	-0.244086391007	100.112868	-3.77301	1.81243686318
100.10228	-3.758382	-0.430310064384	100.10228	-3.758382	2.0391360761
100.091692	-3.743753	-0.613885332276	100.091692	-3.743753	2.27514003268
100.081105	-3.729123	-0.779229540312	100.081105	-3.729123	2.50025469177
100.070519	-3.714494	-0.900242735571	100.070519	-3.714494	2.67998913375
100.059932	-3.699865	-0.948505617214	100.059932	-3.699865	2.77305474349
100.049346	-3.685235	-0.916317125865	100.049346	-3.685235	2.76625557069
100.03876	-3.670605	-0.826025672898	100.03876	-3.670605	2.69144667038
100.028175	-3.655976	-0.709726827448	100.028175	-3.655976	2.59316865467
100.01759	-3.641346	-0.590336899863	100.01759	-3.641346	2.49797960228
100.007005	-3.626715	-0.484052488452	100.007005	-3.626715	2.41896267197
99.996421	-3.612085	-0.407245662839	99.996421	-3.612085	2.36661217264
99.985837	-3.597455	-0.376425869788	99.985837	-3.597455	2.35265003366
99.975253	-3.582824	-0.397738375562	99.975253	-3.582824	2.38321672855
99.96467	-3.568194	-0.459969689729	99.96467	-3.568194	2.45368823804
99.954087	-3.553563	-0.542905054715	99.954087	-3.553563	2.55358694182
99.943505	-3.538932	-0.629811383184	99.943505	-3.538932	2.67506073039
99.932922	-3.524301	-0.710443030488	99.932922	-3.524301	2.81430700389
99.92234	-3.50967	-0.780105484087	99.92234	-3.50967	2.97107357131
99.911759	-3.495039	-0.838068021322	99.911759	-3.495039	3.14754362284
99.901177	-3.480408	-0.884763525541	99.901177	-3.480408	3.34571339044
99.890596	-3.465776	-0.918428076892	99.890596	-3.465776	3.56405548837
99.880016	-3.451145	-0.937193718094	99.880016	-3.451145	3.79908651651
99.869435	-3.436513	-0.939964305082	99.869435	-3.436513	4.04517507079
99.858855	-3.421881	-0.925929072969	99.858855	-3.421881	4.29146533906
99.848276	-3.407249	-0.894079908886	99.848276	-3.407249	4.51982678265
99.837696	-3.392617	-0.844654508304	99.837696	-3.392617	4.70919183605
99.827117	-3.377985	-0.778871010873	99.827117	-3.377985	4.84745356283
99.816538	-3.363352	-0.697624660979	99.816538	-3.363352	4.94073473435
99.80596	-3.34872	-0.601277210119	99.80596	-3.34872	5.00689227537
99.795382	-3.334087	-0.491722498787	99.795382	-3.334087	5.05936670448
99.784804	-3.319455	-0.374582341863	99.784804	-3.319455	5.09820964027
99.774227	-3.304822	-0.261920791254	99.774227	-3.304822	5.11035132469
99.763649	-3.290189	-0.171421022998	99.763649	-3.290189	5.07853796127
99.753073	-3.275556	-0.114307856951	99.753073	-3.275556	4.9943703159
99.742496	-3.260923	-0.0839259781561	99.742496	-3.260923	4.86641620769
99.73192	-3.24629	-0.0638295995956	99.73192	-3.24629	4.71197784489
99.721344	-3.231656	-0.0433477860192	99.721344	-3.231656	4.54602668842
99.710768	-3.217023	-0.020790530829	99.710768	-3.217023	4.37884783193
99.700193	-3.202389	-0.00276379448855	99.700193	-3.202389	4.22436254419
99.689618	-3.187755	-0.00435236691142	99.689618	-3.187755	4.10884090372
99.679043	-3.173122	-0.0430533648903	99.679043	-3.173122	4.06314557465
99.668469	-3.158488	-0.12239221167	99.668469	-3.158488	4.08964893504
99.657894	-3.143854	-0.229825756148	99.657894	-3.143854	4.15835838093
99.64732	-3.129219	-0.351362245955	99.64732	-3.129219	4.23767753164
99.636747	-3.114585	-0.476239431638	99.636747	-3.114585	4.30876569721
99.626174	-3.099951	-0.586812194114	99.626174	-3.099951	4.35262894565
99.615601	-3.085316	-0.650917331555	99.615601	-3.085316	4.34071644793
99.605028	-3.070682	-0.640392360939	99.605028	-3.070682	4.24934013458
99.594456	-3.056047	-0.560039413946	99.594456	-3.056047	4.08303281578
99.583883	-3.041412	-0.444964417537	99.583883	-3.041412	3.8716734824
99.573312	-3.026777	-0.323743972582	99.573312	-3.026777	3.63905179619
99.56274	-3.012142	-0.209772792971	99.56274	-3.012142	3.3942460685
99.552169	-2.997507	-0.110941629081	99.552169	-2.997507	3.13823793943
99.541598	-2.982872	-0.0380786960685	99.541598	-2.982872	2.87213234864
99.531027	-2.968236	-0.00174475189525	99.531027	-2.968236	2.59885664751
99.520457	-2.953601	-0.000813940200503	99.520457	-2.953601	2.31902594508
99.509886	-2.938965	-0.0216725975837	99.509886	-2.938965	2.0305328671
99.499317	-2.924329	-0.0485975168102	99.499317	-2.924329	1.73350522374
99.488747	-2.909694	-0.0716092933864	99.488747	-2.909694	1.43572702756
99.478178	-2.895058	-0.0844984326639	99.478178	-2.895058	1.1542899452
99.467609	-2.880422	-0.082639479569	99.467609	-2.880422	0.917134286401
99.45704	-2.865786	-0.0633367973838	99.45704	-2.865786	0.751936916074
99.446471	-2.851149	-0.0274204396034	99.446471	-2.851149	0.663397036206
99.435903	-2.836513	0.0205867956184	99.435903	-2.836513	0.628115647064
99.425335	-2.821877	0.0743817900692	99.425335	-2.821877	0.619627568522
99.414767	-2.80724	0.127354413932	99.414767	-2.80724	0.625202382196
99.4042	-2.792604	0.172710685781	99.4042	-2.792604	0.644348167327
99.393633	-2.777967	0.204044942369	99.393633	-2.777967	0.68496988327
100.222613	-3.894118	1.12022173579	100.222613	-3.894118	1.51487299413
100.212021	-3.879491	1.0130977261	100.212021	-3.879491	1.44455131983
100.201431	-3.864863	0.871588283598	100.201431	-3.864863	1.36224960071
100.19084	-3.850235	0.730603230298	100.19084	-3.850235	1.28960763912
100.18025	-3.835607	0.598924814951	100.18025	-3.835607	1.23302034381
100.169661	-3.820979	0.473228866753	100.169661	-3.820979	1.20155161789
100.159071	-3.806351	0.340791541476	100.159071	-3.806351	1.21971738738
100.148482	-3.791723	0.184292081711	100.148482	-3.791723	1.32162342723
100.137894	-3.777094	-0.00277042779882	100.137894	-3.777094	1.51709586352
100.127305	-3.762466	-0.208989323521	100.127305	-3.762466	1.77649060177
100.116718	-3.747837	-0.422679865204	100.116718	-3.747837	2.07144934219
100.10613	-3.733208	-0.637759870771	100.10613	-3.733208	2.39022945464
100.095543	-3.718579	-0.84319532314	100.095543	-3.718579	2.71692599167
100.084956	-3.70395	-1.00462134717	100.084956	-3.70395	2.99370129766
100.07437	-3.689321	-1.06062178871	100.07437	-3.689321	3.10948418359
100.063783	-3.674691	-0.989937737581	100.063783	-3.674691	3.02446360843
100.053198	-3.660062	-0.846756539546	100.053198	-3.660062	2.83656834009
100.042612	-3.645432	-0.684903212554	100.042612	-3.645432	2.64023171303
100.032027	-3.630802	-0.524191955314	100.032027	-3.630802	2.46368580725
100.021442	-3.616172	-0.374261724578	100.021442	-3.616172	2.31235492588
100.010858	-3.601542	-0.253551108426	100.010858	-3.601542	2.1966707274
100.000274	-3.586912	-0.194202298917	100.000274	-3.586912	2.14063337664
99.98969	-3.572282	-0.213823821715	99.98969	-3.572282	2.15860982302
99.979107	-3.557651	-0.285674156636	99.979107	-3.557651	2.23003258031
99.968524	-3.543021	-0.37047164788	99.968524	-3.543021	2.3253264675
99.957941	-3.52839	-0.447032118414	99.957941	-3.52839	2.43063964095
99.947358	-3.513759	-0.508697985242	99.947358	-3.513759	2.54431978291
99.936776	-3.499128	-0.559732297214	99.936776	-3.499128	2.67425296774
99.926195	-3.484497	-0.612266917122	99.926195	-3.484497	2.83528187405
99.915613	-3.469866	-0.670744120877	99.915613	-3.469866	3.03342397703
99.905032	-3.455235	-0.722120697532	99.905032	-3.455235	3.25597409845
99.894451	-3.440603	-0.753468076583	99.894451	-3.440603	3.48926962431
99.883871	-3.425972	-0.760020499159	99.883871	-3.425972	3.72615074839
99.873291	-3.41134	-0.741203402365	99.873291	-3.41134	3.959893467
99.862711	-3.396708	-0.699057073267	99.862711	-3.396708	4.17755766762
99.852132	-3.382076	-0.640498638447	99.852132	-3.382076	4.35742305339
99.841552	-3.367444	-0.572899739496	99.841552	-3.367444	4.48126959715
99.830974	-3.352812	-0.493089033388	99.830974	-3.352812	4.55643155724
99.820395	-3.33818	-0.390990341013	99.820395	-3.33818	4.60629008228
99.809817	-3.323547	-0.262135252333	99.809817	-3.323547	4.64351766859
99.799239	-3.308915	-0.11006111937	99.799239	-3.308915	4.66810946028
99.788661	-3.294282	0.0445980224143	99.788661	-3.294282	4.66892350181
99.778084	-3.279649	0.156564819025	99.778084	-3.279649	4.62639441773
99.767507	-3.265016	0.190608037472	99.767507	-3.265016	4.52679565175
99.75693	-3.250383	0.175803266629	99.75693	-3.250383	4.37903854665
99.746354	-3.23575	0.159751575692	99.746354	-3.23575	4.19917102658
99.735778	-3.221117	0.16246290023	99.735778	-3.221117	3.99403742419
99.725202	-3.206484	0.185463520251	99.725202	-3.206484	3.76590692282
99.714627	-3.19185	0.21815608362	99.714627	-3.19185	3.52981431087
99.704052	-3.177217	0.226491889119	99.704052	-3.177217	3.34792993856
99.693477	-3.162583	0.160460639429	99.693477	-3.162583	3.31712661455
99.682902	-3.147949	0.0114332542644	99.682902	-3.147949	3.44660631168
99.672328	-3.133315	-0.178746153564	99.672328	-3.133315	3.63763936349
99.661754	-3.118681	-0.385070008579	99.661754	-3.118681	3.82714613811
99.65118	-3.104047	-0.603016108163	99.65118	-3.104047	4.00135668364
99.640607	-3.089413	-0.814224978062	99.640607	-3.089413	4.14551212505
99.630034	-3.074779	-0.95085917832	99.630034	-3.074779	4.2070860299
99.619461	-3.060144	-0.928683328837	99.619461	-3.060144	4.12061764589
99.608889	-3.04551	-0.76833372156	99.608889	-3.04551	3.90420706294
99.598316	-3.030875	-0.568539297531	99.598316	-3.030875	3.63801082465
99.587744	-3.01624	-0.376348058221	99.587744	-3.01624	3.36022953842
99.577173	-3.001605	-0.199417409854	99.577173	-3.001605	3.07608803874
99.566601	-2.98697	-0.0411252744266	99.566601	-2.98697	2.78498792451
99.55603	-2.972335	0.0785850917904	99.55603	-2.972335	2.49660629687
99.545459	-2.9577	0.128592732227	99.545459	-2.9577	2.2294370251
99.534889	-2.943064	0.110485093375	99.534889	-2.943064	1.98292791521
99.524319	-2.928429	0.0629554267242	99.524319	-2.928429	1.7349671686
99.513749	-2.913793	0.0165216689952	99.513749	-2.913793	1.4704740759
99.503179	-2.899158	-0.0187096630807	99.503179	-2.899158	1.19018511116
99.49261	-2.884522	-0.0400580832624	99.49261	-2.884522	0.906888851482
99.48204	-2.869886	-0.046385625333	99.48204	-2.869886	0.658390411308
99.471471	-2.85525	-0.0366405912668	99.471471	-2.85525	0.505637625877
99.460903	-2.840614	-0.0123596367243	99.460903	-2.840614	0.462650449454
99.450334	-2.825978	0.0214209062629	99.450334	-2.825978	0.469285592791
99.439766	-2.811342	0.0592408021706	99.439766	-2.811342	0.484536011553
99.429199	-2.796705	0.096097590694	99.429199	-2.796705	0.49845575408
99.418631	-2.782069	0.127258144673	99.418631	-2.782069	0.513934237696
99.408064	-2.767432	0.148994338248	99.408064	-2.767432	0.544528569066
100.237051	-3.883571	1.3080406166	100.237051	-3.883571	1.62860332302
100.22646	-3.868944	1.129974782	100.22646	-3.868944	1.49589594928
100.215869	-3.854317	0.941910789656	100.215869	-3.854317	1.36168059449
100.205278	-3.839689	0.782685575969	100.205278	-3.839689	1.24893181811
100.194688	-3.825061	0.652164092165	100.194688	-3.825061	1.15227252924
100.184099	-3.810433	0.542984115679	100.184099	-3.810433	1.06976094849
100.173509	-3.795805	0.434402959279	100.173509	-3.795805	1.03257026056
100.16292	-3.781177	0.280956651246	100.16292	-3.781177	1.12999876865
100.152331	-3.766549	0.066431770298	100.152331	-3.766549	1.39049239196
100.141743	-3.75192	-0.169354811984	100.141743	-3.75192	1.72206935885
100.131155	-3.737292	-0.408540968749	100.131155	-3.737292	2.08255200838
100.120567	-3.722663	-0.654352835462	100.120567	-3.722663	2.47792026616
100.10998	-3.708034	-0.911539803016	100.10998	-3.708034	2.92021442611
100.099393	-3.693405	-1.15445055917	100.099393	-3.693405	3.36456987196
100.088807	-3.678776	-1.23752999232	100.088807	-3.678776	3.53745057652
100.07822	-3.664147	-1.07972671888	100.07822	-3.664147	3.28542580522
100.067635	-3.649518	-0.861806461317	100.067635	-3.649518	2.94943676722
100.057049	-3.634888	-0.652059337245	100.057049	-3.634888	2.65702943564
100.046464	-3.620259	-0.450681705788	100.046464	-3.620259	2.40700240336
100.035879	-3.605629	-0.251340370394	100.035879	-3.605629	2.18442670062
100.025294	-3.590999	-0.0658389233488	100.025294	-3.590999	1.9911776565
100.01471	-3.576369	0.0367282419263	100.01471	-3.576369	1.88111177938
100.004126	-3.561739	-0.00923557667434	100.004126	-3.561739	1.90813011284
99.993543	-3.547108	-0.117803729027	99.993543	-3.547108	1.99987534237
99.98296	-3.532478	-0.21600444931	99.98296	-3.532478	2.09643891377
99.972377	-3.517847	-0.287398130368	99.972377	-3.517847	2.18634463365
99.961794	-3.503217	-0.329566480718	99.961794	-3.503217	2.27025149645
99.951212	-3.488586	-0.352528659915	99.951212	-3.488586	2.36083367698
99.94063	-3.473955	-0.395498809872	99.94063	-3.473955	2.50009425146
99.930049	-3.459324	-0.476896286868	99.930049	-3.459324	2.70824966989
99.919468	-3.444693	-0.551206525209	99.919468	-3.444693	2.93986929478
99.908887	-3.430062	-0.595004478704	99.908887	-3.430062	3.17193526639
99.898306	-3.41543	-0.604992505728	99.898306	-3.41543	3.40191388004
99.887726	-3.400799	-0.581316872933	99.887726	-3.400799	3.6300591655
99.877146	-3.386167	-0.525701135043	99.877146	-3.386167	3.85175609779
99.866567	-3.371535	-0.452069356121	99.866567	-3.371535	4.03839906073
99.855987	-3.356903	-0.387105294146	99.855987	-3.356903	4.13846680095
99.845408	-3.342271	-0.31604972627	99.845408	-3.342271	4.17736786105
99.83483	-3.327639	-0.211003351179	99.83483	-3.327639	4.20368328437
99.824251	-3.313007	-0.0639314771141	99.824251	-3.313007	4.22649197744
99.813673	-3.298375	0.128520799734	99.813673	-3.298375	4.24468949482
99.803096	-3.283742	0.352621484085	99.803096	-3.283742	4.24984819076
99.792518	-3.269109	0.515700666967	99.792518	-3.269109	4.21040230443
99.781941	-3.254477	0.496021777977	99.781941	-3.254477	4.08729352316
99.771365	-3.239844	0.408687747972	99.771365	-3.239844	3.91116463223
99.760788	-3.225211	0.351512471073	99.760788	-3.225211	3.70656569271
99.750212	-3.210578	0.337215882407	99.750212	-3.210578	3.46918570392
99.739636	-3.195945	0.363782657535	99.739636	-3.195945	3.18609730342
99.72906	-3.181311	0.425874060104	99.72906	-3.181311	2.85010374668
99.718485	-3.166678	0.482637099088	99.718485	-3.166678	2.53254172433
99.70791	-3.152044	0.397204596438	99.70791	-3.152044	2.51189843032
99.697336	-3.137411	0.150650584319	99.697336	-3.137411	2.81616764297
99.686761	-3.122777	-0.120481740312	99.686761	-3.122777	3.13983124387
99.676187	-3.108143	-0.398597369723	99.676187	-3.108143	3.4268855698
99.665613	-3.093509	-0.701322770509	99.665613	-3.093509	3.69399979905
99.65504	-3.078875	-1.03791916278	99.65504	-3.078875	3.95579256578
99.644467	-3.064241	-1.31533086391	99.644467	-3.064241	4.14357282223
99.633894	-3.049606	-1.25367205447	99.633894	-3.049606	4.03820517845
99.623321	-3.034972	-0.952912246378	99.623321	-3.034972	3.72194914926
99.612749	-3.020337	-0.66373091026	99.612749	-3.020337	3.39624566011
99.602177	-3.005703	-0.411536310431	99.602177	-3.005703	3.0825621437
99.591605	-2.991068	-0.180760621375	99.591605	-2.991068	2.76892533384
99.581034	-2.976433	0.0421100469876	99.581034	-2.976433	2.44368721105
99.570462	-2.961798	0.231616704392	99.570462	-2.961798	2.12114670774
99.559892	-2.947163	0.291365887589	99.559892	-2.947163	1.86341317343
99.549321	-2.932528	0.220811611092	99.549321	-2.932528	1.67070509323
99.538751	-2.917893	0.132772467767	99.538751	-2.917893	1.46955584416
99.52818	-2.903257	0.0648224301534	99.52818	-2.903257	1.23597350106
99.517611	-2.888622	0.0181155942031	99.517611	-2.888622	0.968852120002
99.507041	-2.873986	-0.01103605773	99.507041	-2.873986	0.670768863453
99.496472	-2.85935	-0.0254205185236	99.496472	-2.85935	0.369269140725
99.485903	-2.844715	-0.0232378067698	99.485903	-2.844715	0.219351821057
99.475334	-2.830079	-0.00576470802475	99.475334	-2.830079	0.267505732755
99.464766	-2.815443	0.0183788840967	99.464766	-2.815443	0.327062671199
99.454197	-2.800807	0.0448419071014	99.454197	-2.800807	0.366187243403
99.44363	-2.78617	0.0701404467983	99.44363	-2.78617	0.385779821086
99.433062	-2.771534	0.0910648431515	99.433062	-2.771534	0.390157338159
99.422494	-2.756898	0.105352151518	99.422494	-2.756898	0.392447488471
100.251489	-3.873025	1.43510310991	100.251489	-3.873025	1.69036858308
100.240898	-3.858398	1.17667173749	100.240898	-3.858398	1.49428146995
100.230307	-3.84377	0.961575282109	100.230307	-3.84377	1.33095188513
100.219716	-3.829143	0.79644245417	100.219716	-3.829143	1.19812645685
100.209126	-3.814515	0.672383427564	100.209126	-3.814515	1.0785833559
100.198536	-3.799887	0.583175750659	100.198536	-3.799887	0.955200961531
100.187947	-3.78526	0.519669068852	100.187947	-3.78526	0.828014153405
100.177358	-3.770632	0.382784934324	100.177358	-3.770632	0.900614548372
100.166769	-3.756003	0.122713983641	100.166769	-3.756003	1.27339528543
100.15618	-3.741375	-0.133588625714	100.15618	-3.741375	1.66339565907
100.145592	-3.726747	-0.383294640322	100.145592	-3.726747	2.06067337204
100.135005	-3.712118	-0.639555765249	100.135005	-3.712118	2.4911197557
100.124417	-3.69749	-0.917872530042	100.124417	-3.69749	2.98628441353
100.11383	-3.682861	-1.22227273445	100.11383	-3.682861	3.55595914152
100.103243	-3.668232	-1.36936517467	100.103243	-3.668232	3.85377135124
100.092657	-3.653603	-1.09559690898	100.092657	-3.653603	3.38044665273
100.082071	-3.638973	-0.835335621023	100.082071	-3.638973	2.95893638189
100.071486	-3.624344	-0.602776346022	100.071486	-3.624344	2.61735309282
100.0609	-3.609715	-0.38085238293	100.0609	-3.609715	2.32677852153
100.050315	-3.595085	-0.150897235283	100.050315	-3.595085	2.0582243233
100.039731	-3.580455	0.097834884723	100.039731	-3.580455	1.79373328328
100.029146	-3.565825	0.29936780082	100.029146	-3.565825	1.5843480722
100.018562	-3.551195	0.155861757957	100.018562	-3.551195	1.6805791667
100.007979	-3.536565	0.00860824842905	100.007979	-3.536565	1.79279868296
99.997396	-3.521935	-0.0992526849881	99.997396	-3.521935	1.88543368519
99.986813	-3.507305	-0.166940789629	99.986813	-3.507305	1.95933269122
99.97623	-3.492674	-0.194904888281	99.97623	-3.492674	2.01646220872
99.965648	-3.478044	-0.184156112752	99.965648	-3.478044	2.05964670918
99.955066	-3.463413	-0.202075683094	99.955066	-3.463413	2.15937169605
99.944484	-3.448782	-0.328192688732	99.944484	-3.448782	2.39822685702
99.933903	-3.434151	-0.420289733979	99.933903	-3.434151	2.63211141885
99.923322	-3.41952	-0.47161200389	99.923322	-3.41952	2.85568802158
99.912741	-3.404889	-0.483934132086	99.912741	-3.404889	3.07342613808
99.902161	-3.390257	-0.458133030297	99.902161	-3.390257	3.29056545237
99.891581	-3.375626	-0.393566834278	99.891581	-3.375626	3.51105630149
99.881001	-3.360994	-0.293655646175	99.881001	-3.360994	3.7283695407
99.870422	-3.346362	-0.245072168778	99.870422	-3.346362	3.78145348127
99.859843	-3.33173	-0.183814394473	99.859843	-3.33173	3.78525107339
99.849264	-3.317098	-0.0779812851504	99.849264	-3.317098	3.79269364661
99.838686	-3.302466	0.0779167653819	99.838686	-3.302466	3.80338227105
99.828108	-3.287834	0.291841946686	99.828108	-3.287834	3.81520964712
99.81753	-3.273202	0.568799090676	99.81753	-3.273202	3.82558189835
99.806952	-3.258569	0.857993069431	99.806952	-3.258569	3.8160508241
99.796375	-3.243937	0.709074164058	99.796375	-3.243937	3.65166986994
99.785798	-3.229304	0.566491472361	99.785798	-3.229304	3.45811329608
99.775222	-3.214671	0.484967077615	99.775222	-3.214671	3.24452356384
99.764646	-3.200038	0.459155598719	99.764646	-3.200038	2.99783532087
99.75407	-3.185405	0.482746307289	99.75407	-3.185405	2.69786669433
99.743494	-3.170772	0.554748495121	99.743494	-3.170772	2.32195172914
99.732919	-3.156139	0.660133242681	99.732919	-3.156139	1.88420270151
99.722344	-3.141505	0.560496116054	99.722344	-3.141505	1.87808122029
99.711769	-3.126872	0.240414732103	99.711769	-3.126872	2.32318210972
99.701194	-3.112238	-0.0692324701472	99.701194	-3.112238	2.71176948318
99.69062	-3.097605	-0.378108254546	99.69062	-3.097605	3.04283391193
99.680046	-3.082971	-0.715604101795	99.680046	-3.082971	3.35147274846
99.669473	-3.068337	-1.10941887668	99.669473	-3.068337	3.67019851654
99.658899	-3.053703	-1.5443537487	99.658899	-3.053703	3.99378391736
99.648326	-3.039069	-1.40235294852	99.648326	-3.039069	3.83440753505
99.637754	-3.024434	-1.01752654852	99.637754	-3.024434	3.4611676081
99.627181	-3.0098	-0.695180724498	99.627181	-3.0098	3.11932945181
99.616609	-2.995165	-0.423009420693	99.616609	-2.995165	2.80063941516
99.606037	-2.980531	-0.170607254946	99.606037	-2.980531	2.48242350084
99.595466	-2.965896	0.0897009197409	99.595466	-2.965896	2.14400950847
99.584894	-2.951261	0.365305981364	99.584894	-2.951261	1.77878814927
99.574323	-2.936626	0.424163432697	99.574323	-2.936626	1.53866011413
99.563753	-2.921991	0.279959277309	99.563753	-2.921991	1.41424194948
99.553182	-2.907356	0.164758104883	99.553182	-2.907356	1.25242513766
99.542612	-2.892721	0.0865060282287	99.542612	-2.892721	1.04696997421
99.532042	-2.878086	0.035724544658	99.532042	-2.878086	0.800947544868
99.521472	-2.86345	0.00410348264643	99.521472	-2.86345	0.514604096675
99.510903	-2.848814	-0.0137377446151	99.510903	-2.848814	0.202121328112
99.500334	-2.834179	-0.0159477945874	99.500334	-2.834179	0.0582723088356
99.489765	-2.819543	-0.00345050800589	99.489765	-2.819543	0.152559395443
99.479197	-2.804907	0.0134261712687	99.479197	-2.804907	0.232255722103
99.468628	-2.790271	0.0315489520124	99.468628	-2.790271	0.281175151154
99.45806	-2.775635	0.0485501231276	99.45806	-2.775635	0.303687613449
99.447492	-2.760999	0.0622880995162	99.447492	-2.760999	0.302340611558
99.436925	-2.746363	0.0710694608789	99.436925	-2.746363	0.279283361199
100.265927	-3.862478	1.27330300268	100.265927	-3.862478	1.5367758659
100.255336	-3.847851	1.09283363759	100.255336	-3.847851	1.399226098
100.244745	-3.833224	0.908821873241	100.244745	-3.833224	1.25904205068
100.234154	-3.818596	0.760249319459	100.234154	-3.818596	1.13866711088
100.223564	-3.803969	0.646571250164	100.223564	-3.803969	1.02906500382
100.212974	-3.789341	0.562939025779	100.212974	-3.789341	0.91945966381
100.202384	-3.774714	0.496175327041	100.202384	-3.774714	0.82220538012
100.191795	-3.760086	0.360968353394	100.191795	-3.760086	0.912551044441
100.181206	-3.745458	0.127950998107	100.181206	-3.745458	1.24692583549
100.170617	-3.73083	-0.113082413656	100.170617	-3.73083	1.62365079848
100.160029	-3.716201	-0.347409404794	100.160029	-3.716201	2.00673167452
100.149441	-3.701573	-0.582605888744	100.149441	-3.701573	2.41018790462
100.138854	-3.686944	-0.823329734134	100.138854	-3.686944	2.84394620957
100.128267	-3.672316	-1.04378447438	100.128267	-3.672316	3.26043960294
100.11768	-3.657687	-1.10609259551	100.11768	-3.657687	3.39919186732
100.107094	-3.643058	-0.961016305268	100.107094	-3.643058	3.16687121383
100.096507	-3.628429	-0.747881918683	100.096507	-3.628429	2.82767731032
100.085922	-3.6138	-0.534815038097	100.085922	-3.6138	2.51190399168
100.075336	-3.599171	-0.324225344953	100.075336	-3.599171	2.22695209725
100.064751	-3.584541	-0.106890660528	100.064751	-3.584541	1.95924520213
100.054167	-3.569912	0.113490992268	100.054167	-3.569912	1.70661378216
100.043582	-3.555282	0.246799279469	100.043582	-3.555282	1.54235935365
100.032998	-3.540652	0.182765285791	100.032998	-3.540652	1.5585810855
100.022414	-3.526022	0.0634136334862	100.022414	-3.526022	1.63462313348
100.011831	-3.511392	-0.0325027821875	100.011831	-3.511392	1.70432159058
100.001248	-3.496762	-0.0952008440876	100.001248	-3.496762	1.76065468209
99.990665	-3.482131	-0.124586356661	99.990665	-3.482131	1.80541132889
99.980083	-3.467501	-0.128567353134	99.980083	-3.467501	1.84875584543
99.969501	-3.45287	-0.16439426782	99.969501	-3.45287	1.95104309915
99.958919	-3.43824	-0.257183350078	99.958919	-3.43824	2.139248024
99.948338	-3.423609	-0.340058159151	99.948338	-3.423609	2.34585266718
99.937757	-3.408978	-0.388700045787	99.937757	-3.408978	2.54686488345
99.927176	-3.394347	-0.401402035602	99.927176	-3.394347	2.74223419663
99.916596	-3.379715	-0.378685910086	99.916596	-3.379715	2.93462130399
99.906015	-3.365084	-0.322281338527	99.906015	-3.365084	3.12284960976
99.895436	-3.350453	-0.246491183591	99.895436	-3.350453	3.28041437401
99.884856	-3.335821	-0.181292695132	99.884856	-3.335821	3.35090772465
99.874277	-3.321189	-0.108286778662	99.874277	-3.321189	3.36551505148
99.863698	-3.306558	-0.000235399636793	99.863698	-3.306558	3.36982566857
99.85312	-3.291926	0.150833837413	99.85312	-3.291926	3.37211943265
99.842542	-3.277294	0.347588215419	99.842542	-3.277294	3.37156173153
99.831964	-3.262661	0.576586048415	99.831964	-3.262661	3.36219111573
99.821386	-3.248029	0.739094512222	99.821386	-3.248029	3.31341342668
99.810809	-3.233397	0.711056166408	99.810809	-3.233397	3.18657905103
99.800232	-3.218764	0.615131160958	99.800232	-3.218764	3.01388733801
99.789655	-3.204131	0.546660046663	99.789655	-3.204131	2.81705626436
99.779079	-3.189499	0.519129637845	99.779079	-3.189499	2.59128101245
99.768503	-3.174866	0.529106778498	99.768503	-3.174866	2.32642045555
99.757927	-3.160233	0.567859170505	99.757927	-3.160233	2.02275164475
99.747352	-3.1456	0.59179937126	99.747352	-3.1456	1.75850853386
99.736776	-3.130966	0.484185778667	99.736776	-3.130966	1.77031157768
99.726202	-3.116333	0.243916015779	99.726202	-3.116333	2.04885954073
99.715627	-3.1017	-0.032792535591	99.715627	-3.1017	2.3759225564
99.705053	-3.087066	-0.319494176114	99.705053	-3.087066	2.67880625536
99.694479	-3.072432	-0.62513952879	99.694479	-3.072432	2.96137298898
99.683905	-3.057798	-0.946963669765	99.683905	-3.057798	3.22625287314
99.673332	-3.043165	-1.18978856055	99.673332	-3.043165	3.40242579875
99.662759	-3.02853	-1.15024776553	99.662759	-3.02853	3.33153509283
99.652186	-3.013896	-0.910159511464	99.652186	-3.013896	3.08133985374
99.641613	-2.999262	-0.649160880704	99.641613	-2.999262	2.79674099942
99.631041	-2.984628	-0.410155295958	99.631041	-2.984628	2.51341498236
99.620469	-2.969993	-0.182541711383	99.620469	-2.969993	2.22441285749
99.609897	-2.955359	0.0480072649034	99.609897	-2.955359	1.91935340687
99.599326	-2.940724	0.260673605787	99.599326	-2.940724	1.61123467335
99.588755	-2.926089	0.317280406872	99.588755	-2.926089	1.39080316182
99.578184	-2.911454	0.2340402653	99.578184	-2.911454	1.24737534307
99.567613	-2.896819	0.142223069529	99.567613	-2.896819	1.0944919501
99.557043	-2.882184	0.0762094175417	99.557043	-2.882184	0.909316234356
99.546473	-2.867549	0.0331709300062	99.546473	-2.867549	0.694019304785
99.535903	-2.852914	0.00682645609339	99.535903	-2.852914	0.457997269157
99.525334	-2.838278	-0.00704694512061	99.525334	-2.838278	0.240014777086
99.514765	-2.823643	-0.00950124953835	99.514765	-2.823643	0.132850665659
99.504196	-2.809007	-0.00299325661451	99.504196	-2.809007	0.146264877629
99.493627	-2.794371	0.00770291935773	99.493627	-2.794371	0.194844622418
99.483059	-2.779736	0.0194459308799	99.483059	-2.779736	0.235339561114
99.472491	-2.7651	0.0304202045895	99.472491	-2.7651	0.259653816736
99.461923	-2.750464	0.0394088352549	99.461923	-2.750464	0.26852582025
99.451355	-2.735827	0.0458946225215	99.451355	-2.735827	0.272743369246
100.280365	-3.851931	1.02343095615	100.280365	-3.851931	1.31642624871
100.269773	-3.837304	0.923715666495	100.269773	-3.837304	1.24473268608
100.259182	-3.822677	0.797796256322	100.259182	-3.822677	1.156048545
100.248591	-3.80805	0.680056749603	100.248591	-3.80805	1.07274422096
100.238001	-3.793422	0.579384285701	100.238001	-3.793422	0.999834190235
100.227411	-3.778795	0.492097319231	100.227411	-3.778795	0.943493168574
100.216821	-3.764167	0.400148377072	100.216821	-3.764167	0.936819652821
100.206232	-3.74954	0.268600615125	100.206232	-3.74954	1.05006813754
100.195643	-3.734912	0.0902955510208	100.195643	-3.734912	1.29337454704
100.185054	-3.720284	-0.107382913404	100.185054	-3.720284	1.60188438177
100.174466	-3.705656	-0.306110721705	100.174466	-3.705656	1.93169314337
100.163878	-3.691028	-0.500293967812	100.163878	-3.691028	2.26901360261
100.15329	-3.676399	-0.6805566253	100.15329	-3.676399	2.59595946778
100.142703	-3.661771	-0.814904170404	100.142703	-3.661771	2.85292208499
100.132116	-3.647142	-0.848748420266	100.132116	-3.647142	2.93746677433
100.12153	-3.632513	-0.770584386163	100.12153	-3.632513	2.82778950891
100.110943	-3.617884	-0.624967611731	100.110943	-3.617884	2.60757166988
100.100358	-3.603255	-0.454853755403	100.100358	-3.603255	2.3573146694
100.089772	-3.588626	-0.278001371601	100.089772	-3.588626	2.10936187268
100.079187	-3.573997	-0.102383521922	100.079187	-3.573997	1.8744114479
100.068602	-3.559368	0.0516676909978	100.068602	-3.559368	1.66995380331
100.058018	-3.544738	0.135838412992	100.058018	-3.544738	1.53697425521
100.047433	-3.530108	0.124966417741	100.047433	-3.530108	1.49683501482
100.03685	-3.515479	0.0611410982404	100.03685	-3.515479	1.51382482063
100.026266	-3.500849	-0.00917159419695	100.026266	-3.500849	1.54888240503
100.015683	-3.486219	-0.0656946769994	100.015683	-3.486219	1.58615100619
100.0051	-3.471588	-0.104985557397	100.0051	-3.471588	1.62554223811
99.994518	-3.456958	-0.136253173535	99.994518	-3.456958	1.67990680314
99.983936	-3.442328	-0.181358683634	99.983936	-3.442328	1.77439037553
99.973354	-3.427697	-0.244496638402	99.973354	-3.427697	1.91465084503
99.962772	-3.413066	-0.304456679015	99.962772	-3.413066	2.07876094642
99.952191	-3.398436	-0.343454473515	99.952191	-3.398436	2.24735903622
99.94161	-3.383805	-0.355110093808	99.94161	-3.383805	2.41277360055
99.93103	-3.369174	-0.338282080577	99.93103	-3.369174	2.5718610975
99.92045	-3.354542	-0.295432610716	99.92045	-3.354542	2.7181137096
99.90987	-3.339911	-0.235082634331	99.90987	-3.339911	2.83410691584
99.89929	-3.32528	-0.165255713303	99.89929	-3.32528	2.90343881798
99.888711	-3.310648	-0.0809873542594	99.888711	-3.310648	2.93364820678
99.878132	-3.296016	0.0280836762256	99.878132	-3.296016	2.94261258557
99.867553	-3.281385	0.16593704166	99.867553	-3.281385	2.93915682567
99.856975	-3.266753	0.327574270803	99.856975	-3.266753	2.92427182778
99.846397	-3.252121	0.488865488336	99.846397	-3.252121	2.89233214442
99.835819	-3.237488	0.59697470203	99.835819	-3.237488	2.82907580709
99.825242	-3.222856	0.617859457648	99.825242	-3.222856	2.72431153363
99.814665	-3.208224	0.586259761582	99.814665	-3.208224	2.58586993549
99.804088	-3.193591	0.548948533374	99.804088	-3.193591	2.42318606959
99.793512	-3.178959	0.527107563814	99.793512	-3.178959	2.23870372751
99.782936	-3.164326	0.521878724446	99.782936	-3.164326	2.03597874477
99.77236	-3.149693	0.520942768426	99.77236	-3.149693	1.83566862734
99.761784	-3.13506	0.490262680133	99.761784	-3.13506	1.70270789539
99.751209	-3.120427	0.388566058694	99.751209	-3.120427	1.71764697186
99.740634	-3.105794	0.21370029002	99.740634	-3.105794	1.87706730461
99.730059	-3.09116	-0.00166420030284	99.730059	-3.09116	2.1027773181
99.719485	-3.076527	-0.233709252001	99.719485	-3.076527	2.33643020463
99.708911	-3.061893	-0.471237150398	99.708911	-3.061893	2.55419246895
99.698337	-3.04726	-0.690888289961	99.698337	-3.04726	2.73499404155
99.687764	-3.032626	-0.831047103412	99.687764	-3.032626	2.83093228316
99.677191	-3.017992	-0.831161691806	99.677191	-3.017992	2.79572830092
99.666618	-3.003358	-0.715202990486	99.666618	-3.003358	2.65005396356
99.656045	-2.988724	-0.551486931635	99.656045	-2.988724	2.44945188777
99.645473	-2.97409	-0.380122713648	99.645473	-2.97409	2.22684228158
99.634901	-2.959456	-0.210533810342	99.634901	-2.959456	1.99069631443
99.624329	-2.944821	-0.0471619490618	99.624329	-2.944821	1.74472646249
99.613757	-2.930187	0.0831548285652	99.613757	-2.930187	1.50733029023
99.603186	-2.915552	0.136557046491	99.603186	-2.915552	1.30804886249
99.592615	-2.900917	0.118917053526	99.592615	-2.900917	1.14369049898
99.582045	-2.886282	0.0765554187335	99.582045	-2.886282	0.984579185484
99.571474	-2.871647	0.039148549966	99.571474	-2.871647	0.812698796001
99.560904	-2.857012	0.0134531516504	99.560904	-2.857012	0.627942821453
99.550334	-2.842377	-0.00171392785005	99.550334	-2.842377	0.442984497851
99.539765	-2.827742	-0.0086123916917	99.539765	-2.827742	0.287683537895
99.529195	-2.813106	-0.00903844255714	99.529195	-2.813106	0.197084362109
99.518626	-2.798471	-0.00491769800904	99.518626	-2.798471	0.174984788764
99.508058	-2.783835	0.00141815077471	99.508058	-2.783835	0.191284567474
99.497489	-2.7692	0.00822094991065	99.497489	-2.7692	0.21879234466
99.486921	-2.754564	0.0145300428135	99.486921	-2.754564	0.245164776601
99.476353	-2.739928	0.0200219530493	99.476353	-2.739928	0.269549000422
99.465785	-2.725292	0.0250013028482	99.465785	-2.725292	0.302528609551
100.294802	-3.841383	0.800056673307	100.294802	-3.841383	1.11301165427
100.28421	-3.826756	0.741894770376	100.28421	-3.826756	1.08222599815
100.273619	-3.81213	0.660835999027	100.273619	-3.81213	1.04048255651
100.263028	-3.797503	0.573855667508	100.263028	-3.797503	1.00040098371
100.252437	-3.782876	0.488399273223	100.252437	-3.782876	0.971458840339
100.241847	-3.768248	0.402705741482	100.241847	-3.768248	0.966840478048
100.231257	-3.753621	0.307308339481	100.231257	-3.753621	1.01113657708
100.220668	-3.738993	0.189917597148	100.220668	-3.738993	1.1316798596
100.210079	-3.724366	0.0488262323636	100.210079	-3.724366	1.32934585613
100.19949	-3.709738	-0.106529876616	100.19949	-3.709738	1.57799531092
100.188902	-3.69511	-0.264677872598	100.188902	-3.69511	1.84752562044
100.178314	-3.680482	-0.41578165034	100.178314	-3.680482	2.114714546
100.167726	-3.665854	-0.546241476555	100.167726	-3.665854	2.35331041283
100.157139	-3.651225	-0.633777373118	100.157139	-3.651225	2.52300562291
100.146552	-3.636597	-0.655088298626	100.146552	-3.636597	2.58206153763
100.135965	-3.621968	-0.605676033008	100.135965	-3.621968	2.52232345811
100.125379	-3.60734	-0.503626203398	100.125379	-3.60734	2.37557562866
100.114793	-3.592711	-0.373229362942	100.114793	-3.592711	2.18363393361
100.104207	-3.578082	-0.233160479856	100.104207	-3.578082	1.97662343785
100.093622	-3.563453	-0.0986874098007	100.093622	-3.563453	1.77554342032
100.083037	-3.548823	0.0105685991279	100.083037	-3.548823	1.6022220475
100.072453	-3.534194	0.0721216957647	100.072453	-3.534194	1.47934052598
100.061869	-3.519565	0.0776448404439	100.061869	-3.519565	1.41554692257
100.051285	-3.504935	0.0428950419448	100.051285	-3.504935	1.39708873227
100.040701	-3.490305	-0.00882654732673	100.040701	-3.490305	1.40348650036
100.030118	-3.475675	-0.0614492453043	100.030118	-3.475675	1.42214437583
100.019535	-3.461045	-0.109278101786	100.019535	-3.461045	1.45199454942
100.008952	-3.446415	-0.154414426806	100.008952	-3.446415	1.50095689102
99.99837	-3.431785	-0.202367881146	99.99837	-3.431785	1.57957962436
99.987788	-3.417154	-0.252566129815	99.987788	-3.417154	1.68912943865
99.977207	-3.402524	-0.297073107822	99.977207	-3.402524	1.81919815012
99.966625	-3.387893	-0.327242689359	99.966625	-3.387893	1.95632199738
99.956044	-3.373262	-0.338089284851	99.956044	-3.373262	2.09078859098
99.945464	-3.358631	-0.327373769373	99.945464	-3.358631	2.21656316489
99.934884	-3.344	-0.295142481774	99.934884	-3.344	2.32794250305
99.924304	-3.329369	-0.243316390127	99.924304	-3.329369	2.41746185571
99.913724	-3.314738	-0.17378517885	99.913724	-3.314738	2.47918348219
99.903145	-3.300107	-0.0859652417812	99.903145	-3.300107	2.51357671797
99.892566	-3.285475	0.0212156085526	99.892566	-3.285475	2.52456052221
99.881987	-3.270843	0.145735541766	99.881987	-3.270843	2.51557208521
99.871408	-3.256212	0.278920022388	99.871408	-3.256212	2.48826093288
99.86083	-3.24158	0.401826097253	99.86083	-3.24158	2.4423479761
99.850253	-3.226948	0.489283702026	99.850253	-3.226948	2.37613836153
99.839675	-3.212316	0.528651699254	99.839675	-3.212316	2.28899666713
99.829098	-3.197683	0.531208764363	99.829098	-3.197683	2.1825975792
99.818521	-3.183051	0.51798382143	99.818521	-3.183051	2.05918342747
99.807945	-3.168419	0.503281281626	99.807945	-3.168419	1.92130500837
99.797368	-3.153786	0.489405710201	99.797368	-3.153786	1.77775027831
99.786792	-3.139153	0.467568229655	99.786792	-3.139153	1.65101836299
99.776217	-3.12452	0.419806920972	99.776217	-3.12452	1.57949796257
99.765641	-3.109887	0.330261660652	99.765641	-3.109887	1.59526179329
99.755066	-3.095254	0.198119930184	99.755066	-3.095254	1.69622128148
99.744492	-3.080621	0.0373798739162	99.744492	-3.080621	1.84780977252
99.733917	-3.065988	-0.135400400643	99.733917	-3.065988	2.01269891341
99.723343	-3.051355	-0.304969529956	99.723343	-3.051355	2.16429814985
99.712769	-3.036721	-0.450548379834	99.712769	-3.036721	2.28060582976
99.702195	-3.022087	-0.543793771414	99.702195	-3.022087	2.33811971873
99.691622	-3.007454	-0.564412942598	99.691622	-3.007454	2.32129302713
99.681049	-2.99282	-0.521166184685	99.681049	-2.99282	2.23766289914
99.670476	-2.978186	-0.43966366633	99.670476	-2.978186	2.10769855368
99.659904	-2.963552	-0.341945272894	99.659904	-2.963552	1.94907343828
99.649332	-2.948918	-0.239605798631	99.649332	-2.948918	1.77162981835
99.63876	-2.934283	-0.141743257264	99.63876	-2.934283	1.58341176158
99.628188	-2.919649	-0.0627662342981	99.628188	-2.919649	1.39611302815
99.617617	-2.905014	-0.0168318623436	99.617617	-2.905014	1.22095049465
99.607046	-2.89038	-0.00290220314869	99.607046	-2.89038	1.05849273074
99.596475	-2.875745	-0.00598627858778	99.596475	-2.875745	0.900007228659
99.585905	-2.86111	-0.0128110064313	99.585905	-2.86111	0.739135090786
99.575335	-2.846475	-0.017191966698	99.575335	-2.846475	0.577578149027
99.564765	-2.83184	-0.0180138623583	99.564765	-2.83184	0.426064957749
99.554195	-2.817205	-0.0160114018024	99.554195	-2.817205	0.302735127234
99.543626	-2.80257	-0.0125115570958	99.543626	-2.80257	0.22394052589
99.533056	-2.787935	-0.00865979505945	99.533056	-2.787935	0.191924890091
99.522488	-2.773299	-0.00520314988348	99.522488	-2.773299	0.194246804658
99.511919	-2.758664	-0.0024591696399	99.511919	-2.758664	0.21542079408
99.501351	-2.744028	-0.000299359607164	99.501351	-2.744028	0.245260393137
99.490783	-2.729392	0.00182399006777	99.490783	-2.729392	0.281021525182
99.480215	-2.714756	0.00490679827232	99.480215	-2.714756	0.326445587372
100.309239	-3.830835	0.605075655278	100.309239	-3.830835	0.926191950819
100.298647	-3.816209	0.570719090994	100.298647	-3.816209	0.925553125352
100.288055	-3.801582	0.520738576808	100.288055	-3.801582	0.922650368252
100.277465	-3.786955	0.459733383394	100.277465	-3.786955	0.921786501646
100.266874	-3.772329	0.390601548291	100.266874	-3.772329	0.930369498648
100.256284	-3.757701	0.313515768979	100.256284	-3.757701	0.961137413602
100.245694	-3.743074	0.22660787293	100.245694	-3.743074	1.03138885509
100.235104	-3.728447	0.127494690817	100.235104	-3.728447	1.15501773187
100.224515	-3.713819	0.0163770999588	100.224515	-3.713819	1.33046110022
100.213926	-3.699192	-0.103375477453	100.213926	-3.699192	1.54091229553
100.203338	-3.684564	-0.225543704969	100.203338	-3.684564	1.76356187478
100.19275	-3.669936	-0.341475450009	100.19275	-3.669936	1.97603311575
100.182162	-3.655308	-0.438761722644	100.182162	-3.655308	2.15525558571
100.171574	-3.64068	-0.501507895521	100.171574	-3.64068	2.27609852699
100.160987	-3.626052	-0.515720456699	100.160987	-3.626052	2.3184386778
100.150401	-3.611423	-0.478062805564	100.150401	-3.611423	2.27781821343
100.139814	-3.596795	-0.398890122191	100.139814	-3.596795	2.16845796247
100.129228	-3.582166	-0.294965189958	100.129228	-3.582166	2.01285203728
100.118643	-3.567537	-0.182601183046	100.118643	-3.567537	1.83366270417
100.108057	-3.552908	-0.076939204317	100.108057	-3.552908	1.65246811772
100.097472	-3.538279	0.00612145289772	100.097472	-3.538279	1.4922557056
100.086888	-3.52365	0.0528214842088	100.086888	-3.52365	1.37285587492
100.076303	-3.50902	0.0588875663423	100.076303	-3.50902	1.30106835381
100.065719	-3.494391	0.0323403312839	100.065719	-3.494391	1.26724149704
100.055136	-3.479761	-0.0134794379418	100.055136	-3.479761	1.25610747882
100.044552	-3.465132	-0.0673797990845	100.044552	-3.465132	1.25798075019
100.033969	-3.450502	-0.122811399874	100.033969	-3.450502	1.27228944925
100.023387	-3.435872	-0.176609392977	100.023387	-3.435872	1.30565962691
100.012804	-3.421242	-0.226788173503	100.012804	-3.421242	1.36605617343
100.002222	-3.406611	-0.270865449107	100.002222	-3.406611	1.4542892213
99.991641	-3.391981	-0.306320534942	99.991641	-3.391981	1.56135772813
99.981059	-3.37735	-0.330890932308	99.981059	-3.37735	1.67391233905
99.970478	-3.36272	-0.342550548676	99.970478	-3.36272	1.78096290682
99.959898	-3.348089	-0.338760293007	99.959898	-3.348089	1.87640547942
99.949317	-3.333458	-0.316240339474	99.949317	-3.333458	1.95835315602
99.938737	-3.318827	-0.271447660454	99.938737	-3.318827	2.02713649635
99.928157	-3.304196	-0.203105705957	99.928157	-3.304196	2.08136862723
99.917578	-3.289565	-0.11355903546	99.917578	-3.289565	2.11652867355
99.906999	-3.274933	-0.00763690200491	99.906999	-3.274933	2.12726812474
99.89642	-3.260302	0.108750780883	99.89642	-3.260302	2.11161555894
99.885841	-3.24567	0.226688913596	99.885841	-3.24567	2.07159668991
99.875263	-3.231039	0.332799341551	99.875263	-3.231039	2.01370906434
99.864685	-3.216407	0.412484432108	99.864685	-3.216407	1.94681724103
99.854108	-3.201775	0.458375767358	99.854108	-3.201775	1.87742599428
99.843531	-3.187143	0.475138628856	99.843531	-3.187143	1.80401451819
99.832954	-3.17251	0.474316116076	99.832954	-3.17251	1.72083678578
99.822377	-3.157878	0.465151551321	99.822377	-3.157878	1.62560126385
99.811801	-3.143246	0.449750795072	99.811801	-3.143246	1.52597439808
99.801225	-3.128613	0.423149197682	99.801225	-3.128613	1.44096336803
99.790649	-3.11398	0.376203585533	99.790649	-3.11398	1.39726127092
99.780073	-3.099348	0.302014890858	99.780073	-3.099348	1.41389598528
99.769498	-3.084715	0.201934959175	99.769498	-3.084715	1.4871779104
99.758923	-3.070082	0.0851459320036	99.758923	-3.070082	1.59364224459
99.748349	-3.055449	-0.035984741834	99.748349	-3.055449	1.70619326606
99.737775	-3.040815	-0.149322447623	99.737775	-3.040815	1.80408347763
99.727201	-3.026182	-0.243172422307	99.727201	-3.026182	1.8732674448
99.716627	-3.011549	-0.308688419614	99.716627	-3.011549	1.90613129624
99.706054	-2.996915	-0.342540487072	99.706054	-2.996915	1.90079012698
99.69548	-2.982281	-0.348372064585	99.69548	-2.982281	1.85992721175
99.684908	-2.967647	-0.332552393819	99.684908	-2.967647	1.7869587493
99.674335	-2.953014	-0.302404507119	99.674335	-2.953014	1.68649549059
99.663763	-2.93838	-0.26446133604	99.663763	-2.93838	1.56412702544
99.653191	-2.923745	-0.223552103402	99.653191	-2.923745	1.42615946966
99.642619	-2.909111	-0.183188956039	99.642619	-2.909111	1.27918032248
99.632048	-2.894477	-0.145645744408	99.632048	-2.894477	1.12836511364
99.621477	-2.879842	-0.1136758831	99.621477	-2.879842	0.976766250885
99.610906	-2.865208	-0.088171290895	99.610906	-2.865208	0.825020897472
99.600335	-2.850573	-0.0681232032857	99.600335	-2.850573	0.673924309872
99.589765	-2.835938	-0.0513998400902	99.589765	-2.835938	0.527194452374
99.579195	-2.821303	-0.0369055254379	99.579195	-2.821303	0.393583709916
99.568625	-2.806668	-0.024899068999	99.568625	-2.806668	0.286082424252
99.558056	-2.792033	-0.0164734239978	99.558056	-2.792033	0.216347388268
99.547486	-2.777398	-0.0122078717916	99.547486	-2.777398	0.186931527076
99.536917	-2.762763	-0.0113143310923	99.536917	-2.762763	0.189746387004
99.526349	-2.748127	-0.0125814763178	99.526349	-2.748127	0.213215546379
99.51578	-2.733492	-0.0148696391448	99.51578	-2.733492	0.248898646704
99.505212	-2.718856	-0.0167952861321	99.505212	-2.718856	0.292706923244
99.494644	-2.704221	-0.0163027739417	99.494644	-2.704221	0.343040760367
100.323675	-3.820288	0.427419202977	100.323675	-3.820288	0.745396069062
100.313083	-3.805661	0.412112280227	100.313083	-3.805661	0.773256193512
100.302492	-3.791035	0.388389648009	100.302492	-3.791035	0.80629597353
100.291901	-3.776408	0.350443308657	100.291901	-3.776408	0.839161681687
100.28131	-3.761781	0.297247348941	100.28131	-3.761781	0.875116425032
100.27072	-3.747154	0.230908740834	100.27072	-3.747154	0.9255881159
100.26013	-3.732527	0.155747778412	100.26013	-3.732527	1.00739849081
100.24954	-3.7179	0.0762596033411	100.24954	-3.7179	1.13421414366
100.238951	-3.703273	-0.00685416251723	100.238951	-3.703273	1.30283848062
100.228362	-3.688645	-0.0953774735037	100.228362	-3.688645	1.49430756331
100.217773	-3.674018	-0.187868555036	100.217773	-3.674018	1.68735805684
100.207185	-3.65939	-0.278326695335	100.207185	-3.65939	1.86341933614
100.196597	-3.644762	-0.356662707333	100.196597	-3.644762	2.00540677477
100.18601	-3.630134	-0.40860103665	100.18601	-3.630134	2.09705903433
100.175423	-3.615506	-0.419236030852	100.175423	-3.615506	2.1266087159
100.164836	-3.600878	-0.383360015205	100.164836	-3.600878	2.09094236355
100.154249	-3.586249	-0.311593450846	100.154249	-3.586249	1.99711101444
100.143663	-3.571621	-0.220481870977	100.143663	-3.571621	1.8578990396
100.133077	-3.556992	-0.12373916164	100.133077	-3.556992	1.68867517125
100.122492	-3.542363	-0.0337286399301	100.122492	-3.542363	1.50841366828
100.111907	-3.527734	0.035603745737	100.111907	-3.527734	1.34397802189
100.101322	-3.513105	0.0710985619739	100.101322	-3.513105	1.22363275509
100.090738	-3.498476	0.0688465918226	100.090738	-3.498476	1.15614384409
100.080154	-3.483847	0.0369792437832	100.080154	-3.483847	1.12345410553
100.06957	-3.469217	-0.013493922146	100.06957	-3.469217	1.10493947496
100.058986	-3.454588	-0.0745577682972	100.058986	-3.454588	1.09128244278
100.048403	-3.439958	-0.140247339827	100.048403	-3.439958	1.0840683755
100.037821	-3.425328	-0.203978855845	100.037821	-3.425328	1.09370493788
100.027238	-3.410698	-0.257895464767	100.027238	-3.410698	1.13447255432
100.016656	-3.396068	-0.297731230809	100.016656	-3.396068	1.21003766101
