99.904113	-4.102836	0.750776544479
99.88823	-4.08089	0.755344698035
99.872348	-4.058943	0.759533516385
99.856467	-4.036996	0.763631279014
99.840586	-4.015048	0.765534908411
99.824707	-3.993101	0.765077274005
99.808828	-3.971153	0.764808621652
99.792949	-3.949205	0.764769789779
99.777072	-3.927256	0.764853360953
99.761195	-3.905307	0.765791713091
99.74532	-3.883358	0.767655315143
99.729445	-3.861409	0.769515486667
99.71357	-3.839459	0.771391291828
99.697697	-3.817509	0.773229327763
99.681824	-3.795559	0.774531312242
99.665952	-3.773608	0.775785108857
99.650081	-3.751658	0.777143253901
99.634211	-3.729707	0.778606822529
99.618341	-3.707755	0.780135770263
99.602472	-3.685804	0.78163263081
99.586604	-3.663852	0.783317906035
99.570736	-3.6419	0.785355606203
99.55487	-3.619948	0.787872534993
99.539003	-3.597995	0.789075851725
99.523138	-3.576042	0.788467691997
99.507274	-3.554089	0.788178880473
99.49141	-3.532136	0.788067643982
99.475546	-3.510182	0.787973115291
99.459684	-3.488228	0.788305006604
99.443822	-3.466274	0.788789198847
99.427961	-3.44432	0.788922896879
99.412101	-3.422365	0.78858994848
99.396241	-3.40041	0.787968656109
99.380382	-3.378455	0.790020444382
99.364523	-3.3565	0.793886371363
99.348666	-3.334544	0.797662163958
99.332809	-3.312588	0.801569340183
99.316952	-3.290632	0.804704417814
99.301096	-3.268676	0.804524344511
99.285241	-3.24672	0.804199509784
99.269387	-3.224763	0.804212539366
99.253533	-3.202806	0.804389949761
99.23768	-3.180849	0.805653716378
99.221827	-3.158891	0.807759332813
99.205975	-3.136934	0.809847540025
99.190124	-3.114976	0.812007053906
99.174273	-3.093018	0.814267858581
99.158423	-3.071059	0.815192387406
99.142574	-3.049101	0.815092725003
99.126725	-3.027142	0.815084353669
99.110876	-3.005183	0.815052151743
99.925781	-4.087023	1.14344415075
99.909898	-4.065077	1.14783218084
99.894016	-4.043131	1.15193605127
99.878134	-4.021184	1.15617919197
99.862253	-3.999237	1.15802667294
99.846373	-3.97729	1.15725613539
99.830494	-3.955342	1.15691722315
99.814616	-3.933394	1.15688620866
99.798738	-3.911446	1.1569522423
99.782861	-3.889497	1.15791795961
99.766985	-3.867549	1.159792383
99.75111	-3.8456	1.16167663159
99.735235	-3.82365	1.16357436749
99.719362	-3.801701	1.16543322994
99.703489	-3.779751	1.16676624854
99.687617	-3.757801	1.16804729507
99.671745	-3.73585	1.16943275643
99.655874	-3.7139	1.1708861951
99.640004	-3.691949	1.17237872997
99.624135	-3.669998	1.17382915336
99.608267	-3.648046	1.17542889878
99.592399	-3.626094	1.17735055381
99.576532	-3.604142	1.17965995318
99.560666	-3.58219	1.18084369062
99.5448	-3.560238	1.18055695885
99.528935	-3.538285	1.18048237723
99.513071	-3.516332	1.18056438335
99.497208	-3.494379	1.18057469449
99.481345	-3.472425	1.18100005677
99.465483	-3.450471	1.1815243716
99.449621	-3.428517	1.1816044792
99.433761	-3.406563	1.18118527659
99.417901	-3.384609	1.1804506319
99.402041	-3.362654	1.18235793641
99.386183	-3.340699	1.18605871322
99.370325	-3.318744	1.18964597727
99.354467	-3.296788	1.19337563909
99.338611	-3.274832	1.19634780544
99.322755	-3.252876	1.19626271895
99.306899	-3.23092	1.19598363597
99.291045	-3.208964	1.1960551277
99.275191	-3.187007	1.19632071459
99.259337	-3.16505	1.19760310435
99.243484	-3.143093	1.19967646615
99.227632	-3.121136	1.20174456971
99.21178	-3.099178	1.20382922895
99.195929	-3.077221	1.20587021923
99.180079	-3.055263	1.20676653251
99.164229	-3.033305	1.20672725416
99.14838	-3.011346	1.20669844763
99.132532	-2.989388	1.20668733429
99.116684	-2.967429	1.20673142926
99.947449	-4.07121	1.53765920161
99.931565	-4.049264	1.54067811884
99.915683	-4.027318	1.54371496416
99.899801	-4.005372	1.54644983327
99.88392	-3.983425	1.54801389932
99.868039	-3.961478	1.54843008329
99.85216	-3.939531	1.54866754914
99.836281	-3.917583	1.54902509377
99.820403	-3.895635	1.54959620162
99.804526	-3.873687	1.55064375112
99.78865	-3.851739	1.55215050953
99.772774	-3.82979	1.55382384184
99.7569	-3.807841	1.55555042775
99.741026	-3.785892	1.55720808156
99.725153	-3.763943	1.55871137019
99.70928	-3.741993	1.56015163884
99.693408	-3.720043	1.56161272243
99.677537	-3.698092	1.56308449788
99.661667	-3.676142	1.56449393901
99.645798	-3.654191	1.56583486074
99.629929	-3.63224	1.56716825183
99.614061	-3.610289	1.56861589661
99.598194	-3.588337	1.57011876495
99.582327	-3.566385	1.57123260029
99.566461	-3.544433	1.57192653975
99.550596	-3.52248	1.57258801488
99.534732	-3.500528	1.57325289272
99.518868	-3.478575	1.573837784
99.503005	-3.456622	1.57437657137
99.487143	-3.434668	1.57477890246
99.471281	-3.412714	1.5749008011
99.45542	-3.390761	1.57482825291
99.43956	-3.368806	1.57504997445
99.4237	-3.346852	1.57638951603
99.407841	-3.324897	1.57872405661
99.391983	-3.302942	1.58134251959
99.376126	-3.280987	1.58392298084
99.360269	-3.259032	1.58586792098
99.344412	-3.237076	1.58678030375
99.328557	-3.21512	1.58731230839
99.312702	-3.193164	1.58790520977
99.296847	-3.171208	1.58872799375
99.280994	-3.149252	1.5900464026
99.265141	-3.127295	1.59177088967
99.249288	-3.105338	1.59359842203
99.233436	-3.083381	1.59538176886
99.217585	-3.061423	1.59691275648
99.201734	-3.039466	1.59780610926
99.185884	-3.017508	1.5981465414
99.170035	-2.99555	1.59828600271
99.154186	-2.973591	1.59844617631
99.138338	-2.951633	1.59883280795
99.969115	-4.055396	1.93184862005
99.953231	-4.03345	1.93361128214
99.937349	-4.011505	1.93541808375
99.921466	-3.989559	1.93706238542
99.905585	-3.967612	1.93838968188
99.889705	-3.945666	1.93938453013
99.873825	-3.923719	1.940224741
99.857946	-3.901772	1.94104935204
99.842068	-3.879824	1.94198044103
99.826191	-3.857877	1.94311079392
99.810314	-3.835929	1.94445602066
99.794438	-3.81398	1.94594376291
99.778563	-3.792032	1.94748233361
99.762689	-3.770083	1.94904977773
99.746816	-3.748134	1.95062525604
99.730943	-3.726184	1.95220714223
99.715071	-3.704235	1.95377668396
99.6992	-3.682285	1.95530053536
99.683329	-3.660334	1.95666749717
99.667459	-3.638384	1.95779494828
99.651591	-3.616433	1.95876264439
99.635722	-3.594482	1.95964714207
99.619855	-3.572531	1.9605995657
99.603988	-3.550579	1.9617357349
99.588122	-3.528627	1.96311859369
99.572256	-3.506675	1.96461454783
99.556392	-3.484723	1.96607087359
99.540528	-3.46277	1.96727565918
99.524665	-3.440818	1.96803420911
99.508802	-3.418864	1.96836562508
99.49294	-3.396911	1.96847880708
99.477079	-3.374958	1.96862809933
99.461218	-3.353004	1.96906287642
99.445359	-3.33105	1.97000739032
99.429499	-3.309095	1.97138393904
99.413641	-3.287141	1.97297081508
99.397783	-3.265186	1.97454603271
99.381926	-3.243231	1.97598046555
99.366069	-3.221276	1.97725047806
99.350214	-3.19932	1.97844850336
99.334358	-3.177364	1.97960149306
99.318504	-3.155408	1.98084574322
99.30265	-3.133452	1.98225667147
99.286796	-3.111496	1.98382705767
99.270944	-3.089539	1.98548556992
99.255092	-3.067582	1.98706343866
99.23924	-3.045625	1.98837119099
99.223389	-3.023668	1.98923225815
99.207539	-3.00171	1.98966598337
99.191689	-2.979752	1.98986083656
99.17584	-2.957795	1.99006412665
99.159992	-2.935836	1.99056938131
99.990781	-4.039581	2.32582761397
99.974897	-4.017636	2.32650102337
99.959014	-3.995691	2.32721018792
99.943131	-3.973745	2.32797434276
99.92725	-3.951799	2.32904519427
99.911369	-3.929853	2.33042731165
99.895489	-3.907907	2.33177003017
99.87961	-3.88596	2.33298598641
99.863732	-3.864013	2.33416004868
99.847854	-3.842065	2.33537381327
99.831977	-3.820118	2.33665559105
99.816101	-3.79817	2.3380130749
99.800226	-3.776222	2.33941299055
99.784351	-3.754273	2.34088626819
99.768478	-3.732324	2.34252444225
99.752605	-3.710375	2.34424118073
99.736733	-3.688426	2.345960333
99.720861	-3.666476	2.34762453274
99.70499	-3.644526	2.34903634937
99.68912	-3.622576	2.34991311707
99.673251	-3.600626	2.35037930058
99.657383	-3.578675	2.35064324582
99.641515	-3.556724	2.35092156004
99.625648	-3.534773	2.35201675264
99.609782	-3.512822	2.35420312384
99.593916	-3.49087	2.35667320888
99.578051	-3.468918	2.35906764978
99.562187	-3.446966	2.36108331952
99.546323	-3.425013	2.36205677221
99.530461	-3.40306	2.3621094144
99.514598	-3.381107	2.36202999354
99.498737	-3.359154	2.36221621253
99.482876	-3.337201	2.36265592942
99.467016	-3.315247	2.3632324353
99.451157	-3.293293	2.36391930692
99.435298	-3.271339	2.36464287854
99.41944	-3.249384	2.36532751559
99.403582	-3.227429	2.36625164702
99.387726	-3.205474	2.36783148144
99.37187	-3.183519	2.36960746417
99.356014	-3.161564	2.37123037708
99.340159	-3.139608	2.3727643889
99.324305	-3.117652	2.37428753722
99.308451	-3.095696	2.37582893419
99.292598	-3.07374	2.37739573822
99.276746	-3.051783	2.37892779248
99.260894	-3.029827	2.38023115672
99.245043	-3.00787	2.38105220269
99.229193	-2.985912	2.3813733686
99.213343	-2.963955	2.3814376762
99.197493	-2.941997	2.38147002879
99.181645	-2.920039	2.38187570864
100.012446	-4.023766	2.71963379324
99.996562	-4.001821	2.71926215316
99.980678	-3.979876	2.71907961872
99.964796	-3.957931	2.71886512152
99.948914	-3.935986	2.71963628837
99.933033	-3.91404	2.72171145874
99.917153	-3.892094	2.72349717324
99.901273	-3.870147	2.72495668959
99.885395	-3.848201	2.72627934351
99.869517	-3.826254	2.72754387932
99.85364	-3.804306	2.72880231145
99.837763	-3.782359	2.7300675644
99.821888	-3.760411	2.73133994083
99.806013	-3.738463	2.73264265973
99.790139	-3.716514	2.73440241214
99.774266	-3.694566	2.73627316924
99.758394	-3.672617	2.73812811863
99.742522	-3.650667	2.74001790364
99.726651	-3.628718	2.74175134371
99.710781	-3.606768	2.74222814323
99.694911	-3.584818	2.74219882321
99.679043	-3.562868	2.74188636438
99.663175	-3.540917	2.74107771333
99.647307	-3.518966	2.741844188
99.631441	-3.497015	2.74543424198
99.615575	-3.475064	2.74879973732
99.59971	-3.453112	2.75212360303
99.583845	-3.43116	2.75547557205
99.567981	-3.409208	2.75650199343
99.552118	-3.387256	2.75562989351
99.536256	-3.365303	2.75525360357
99.520394	-3.34335	2.75544067811
99.504533	-3.321397	2.75601779271
99.488673	-3.299443	2.75624786671
99.472813	-3.27749	2.75641140162
99.456954	-3.255536	2.75652169105
99.441096	-3.233582	2.75627584257
99.425238	-3.211627	2.75627282346
99.409381	-3.189673	2.75860660482
99.393525	-3.167718	2.76100885079
99.377669	-3.145763	2.76295347807
99.361814	-3.123808	2.76466960395
99.34596	-3.101852	2.76626198437
99.330106	-3.079896	2.76778811648
99.314252	-3.05794	2.76933281135
99.2984	-3.035984	2.77090762535
99.282548	-3.014027	2.7724414165
99.266697	-2.992071	2.77321687456
99.250846	-2.970114	2.77323425863
99.234996	-2.948157	2.77311655466
99.219146	-2.926199	2.77282352737
99.203297	-2.904242	2.77271443278
100.03411	-4.007951	3.11232804664
100.018226	-3.986006	3.11168516734
100.002342	-3.964062	3.11129968543
99.986459	-3.942117	3.11077121684
99.970577	-3.920172	3.11140946956
99.954696	-3.898226	3.11373179819
99.938815	-3.87628	3.11556861032
99.922936	-3.854334	3.11705440826
99.907057	-3.832388	3.1183793759
99.891179	-3.810441	3.11965282182
99.875301	-3.788494	3.12089403414
99.859425	-3.766547	3.12217369733
99.843549	-3.7446	3.12342288315
99.827674	-3.722652	3.12470361782
99.8118	-3.700704	3.12648076262
99.795927	-3.678756	3.12836244639
99.780054	-3.656807	3.13020442875
99.764182	-3.634858	3.13207032158
99.748311	-3.612909	3.13376418279
99.73244	-3.590959	3.13426817257
99.716571	-3.56901	3.134274639
99.700702	-3.54706	3.13399447431
99.684833	-3.525109	3.13330948267
99.668966	-3.503159	3.13419661666
99.653099	-3.481208	3.13759669164
99.637233	-3.459257	3.14096996846
99.621367	-3.437306	3.14438745422
99.605503	-3.415354	3.14819150665
99.589639	-3.393402	3.14922691637
99.573775	-3.37145	3.14817062564
99.557913	-3.349498	3.14783866167
99.542051	-3.327545	3.14809149872
99.52619	-3.305593	3.1486197977
99.510329	-3.28364	3.14886697943
99.494469	-3.261686	3.148974027
99.47861	-3.239733	3.14893644147
99.462751	-3.217779	3.14851539663
99.446893	-3.195825	3.14833955261
99.431036	-3.173871	3.15062267855
99.415179	-3.151916	3.15297525691
99.399323	-3.129961	3.15489351318
99.383468	-3.108006	3.15659475533
99.367613	-3.086051	3.15816003094
99.351759	-3.064096	3.15967897467
99.335906	-3.04214	3.16123999621
99.320053	-3.020184	3.16280004027
99.304201	-2.998228	3.16428108365
99.288349	-2.976272	3.16504773447
99.272498	-2.954315	3.16512453137
99.256648	-2.932358	3.16503821065
99.240798	-2.910401	3.16481339384
99.224949	-2.888444	3.16490381022
100.055773	-3.992134	3.50351995512
100.039889	-3.970191	3.50371136406
100.024005	-3.948246	3.50395866954
100.008122	-3.926302	3.50429423564
99.992239	-3.904357	3.50517887075
99.976358	-3.882412	3.5066307514
99.960477	-3.860467	3.50802803839
99.944597	-3.838521	3.50926642489
99.928718	-3.816575	3.51045031049
99.91284	-3.794629	3.51167085716
99.896962	-3.772682	3.51295798504
99.881086	-3.750735	3.51431682206
99.86521	-3.728788	3.51569788359
99.849334	-3.706841	3.51714805309
99.83346	-3.684893	3.51878727027
99.817586	-3.662945	3.52049618099
99.801713	-3.640997	3.52219179716
99.785841	-3.619048	3.52383047857
99.76997	-3.597099	3.5252115165
99.754099	-3.57515	3.52608097398
99.738229	-3.553201	3.52657726821
99.72236	-3.531251	3.52689536759
99.706491	-3.509301	3.52726963871
99.690624	-3.487351	3.52845505264
99.674757	-3.465401	3.53060356284
99.65889	-3.44345	3.53309141271
99.643025	-3.421499	3.53568218947
99.62716	-3.399548	3.5380554785
99.611295	-3.377596	3.53926778395
99.595432	-3.355645	3.53951894918
99.579569	-3.333693	3.53976617504
99.563707	-3.31174	3.54025374599
99.547845	-3.289788	3.5408157969
99.531984	-3.267835	3.54129209921
99.516124	-3.245882	3.54164847265
99.500265	-3.223929	3.54189506105
99.484406	-3.201976	3.54205452154
99.468548	-3.180022	3.54258811013
99.45269	-3.158068	3.54390373472
99.436833	-3.136114	3.54551507784
99.420977	-3.114159	3.54705843983
99.405122	-3.092205	3.54853009295
99.389267	-3.07025	3.55001140585
99.373412	-3.048295	3.55153768689
99.357559	-3.026339	3.55312608714
99.341705	-3.004384	3.55463590006
99.325853	-2.982428	3.55593707029
99.310001	-2.960472	3.55673969198
99.29415	-2.938516	3.55706522927
99.278299	-2.916559	3.55716047682
99.262449	-2.894602	3.55727628285
99.2466	-2.872645	3.55781098552
100.077436	-3.976318	3.89445383626
100.061551	-3.954374	3.89558804727
100.045667	-3.932431	3.89672925055
100.029784	-3.910486	3.89786145737
100.013901	-3.888542	3.89891276539
99.998019	-3.866597	3.89986643891
99.982138	-3.844652	3.9007163528
99.966258	-3.822707	3.90154603627
99.950379	-3.800761	3.90248615429
99.9345	-3.778815	3.9036260677
99.918623	-3.756869	3.90498610841
99.902746	-3.734923	3.90645134455
99.886869	-3.712976	3.90796520106
99.870994	-3.691029	3.90952177895
99.855119	-3.669082	3.91108536712
99.839245	-3.647134	3.91265555308
99.823372	-3.625186	3.91419838461
99.8075	-3.603238	3.91566966927
99.791628	-3.581289	3.91698643383
99.775757	-3.559341	3.91808907961
99.759887	-3.537392	3.91905151013
99.744018	-3.515442	3.91999036221
99.728149	-3.493493	3.92100303347
99.712281	-3.471543	3.92221841929
99.696413	-3.449593	3.92360988061
99.680547	-3.427642	3.9251431645
99.664681	-3.405692	3.9267113416
99.648816	-3.383741	3.92821957967
99.632951	-3.36179	3.92947422709
99.617088	-3.339838	3.93049447217
99.601224	-3.317887	3.93136439819
99.585362	-3.295935	3.93222928436
99.5695	-3.273983	3.9330424009
99.553639	-3.25203	3.93377958099
99.537779	-3.230078	3.93443995994
99.521919	-3.208125	3.93507952533
99.50606	-3.186172	3.93574121889
99.490202	-3.164218	3.93648777217
99.474344	-3.142265	3.93733622003
99.458487	-3.120311	3.93829736755
99.44263	-3.098357	3.93931692727
99.426774	-3.076402	3.94045697066
99.410919	-3.054448	3.94179673394
99.395065	-3.032493	3.94336867082
99.379211	-3.010538	3.94503722733
99.363357	-2.988583	3.9466377169
99.347505	-2.966627	3.94798110362
99.331652	-2.944672	3.94880113845
99.315801	-2.922716	3.94918429813
99.29995	-2.900759	3.9493536592
99.2841	-2.878803	3.94957971321
99.26825	-2.856847	3.95018362055
100.099098	-3.960501	4.28533394666
100.083213	-3.938558	4.28745856361
100.067328	-3.916614	4.28957013731
100.051445	-3.894671	4.29150877721
100.035562	-3.872726	4.29278189108
100.01968	-3.850782	4.29322161448
100.003799	-3.828837	4.29344135244
99.987918	-3.806892	4.29375491834
99.972039	-3.784947	4.29433166344
99.95616	-3.763002	4.29540696181
99.940282	-3.741056	4.29692270532
99.924405	-3.71911	4.2985640787
99.908528	-3.697163	4.30023276803
99.892653	-3.675217	4.30187533425
99.876778	-3.65327	4.30339379385
99.860904	-3.631322	4.30483595685
99.84503	-3.609375	4.30623477623
99.829158	-3.587427	4.30762067668
99.813286	-3.565479	4.30894573749
99.797415	-3.54353	4.31024507419
99.781544	-3.521582	4.31154801171
99.765674	-3.499633	4.31298838264
99.749805	-3.477684	4.31454649767
99.733937	-3.455734	4.31580540261
99.71807	-3.433784	4.31652582792
99.702203	-3.411834	4.31712680102
99.686337	-3.389884	4.31777060773
99.670471	-3.367934	4.31856928813
99.654607	-3.345983	4.3199200724
99.638742	-3.324032	4.3215080326
99.622879	-3.30208	4.32295365501
99.607016	-3.280129	4.32420586039
99.591155	-3.258177	4.32534569221
99.575293	-3.236225	4.32631428006
99.559433	-3.214273	4.32725135429
99.543573	-3.19232	4.32828912493
99.527713	-3.170367	4.32941117452
99.511855	-3.148414	4.33029799824
99.495997	-3.126461	4.33071082405
99.480139	-3.104508	4.33105511604
99.464283	-3.082554	4.33154441491
99.448426	-3.0606	4.33222148853
99.432571	-3.038645	4.33341334452
99.416716	-3.016691	4.33511161045
99.400862	-2.994736	4.33699935943
99.385008	-2.972781	4.33886291285
99.369155	-2.950826	4.34045496562
99.353303	-2.928871	4.34127907249
99.337451	-2.906915	4.34148595761
99.3216	-2.884959	4.34152882559
99.30575	-2.863003	4.34159858334
99.2899	-2.841047	4.34206757849
100.120759	-3.944683	4.67631675117
100.104873	-3.922741	4.67942341581
100.088989	-3.900798	4.68240634836
100.073105	-3.878854	4.68548438178
100.057222	-3.85691	4.68712171694
100.04134	-3.834966	4.6865068472
100.025458	-3.813022	4.68600861382
100.009578	-3.791078	4.68585442745
99.993698	-3.769133	4.68588689795
99.977819	-3.747187	4.68703155643
99.961941	-3.725242	4.6888676609
99.946063	-3.703296	4.69066858202
99.930187	-3.68135	4.69249444924
99.914311	-3.659404	4.69429677038
99.898436	-3.637457	4.69570941135
99.882561	-3.61551	4.69697748679
99.866688	-3.593563	4.69829881448
99.850815	-3.571616	4.69961049748
99.834943	-3.549668	4.70094800332
99.819071	-3.52772	4.7023517518
99.8032	-3.505771	4.7038842001
99.787331	-3.483823	4.70571624688
99.771461	-3.461874	4.70800314585
99.755593	-3.439925	4.70955427892
99.739725	-3.417976	4.70923109002
99.723858	-3.396026	4.70907943397
99.707992	-3.374076	4.70895841117
99.692126	-3.352126	4.7087830471
99.676261	-3.330175	4.71053935616
99.660397	-3.308225	4.71285254715
99.644533	-3.286274	4.71469270104
99.62867	-3.264322	4.7162632309
99.612808	-3.242371	4.7177095637
99.596947	-3.220419	4.71883146352
99.581086	-3.198467	4.71993039135
99.565225	-3.176515	4.72127484467
99.549366	-3.154563	4.7229855609
99.533507	-3.13261	4.72424882622
99.517649	-3.110657	4.72389678446
99.501791	-3.088704	4.72371222453
99.485934	-3.06675	4.72370409947
99.470078	-3.044797	4.72374510453
99.454222	-3.022843	4.724730886
99.438367	-3.000888	4.72685002528
99.422513	-2.978934	4.72897681185
99.406659	-2.956979	4.73113485434
99.390806	-2.935025	4.73334602991
99.374953	-2.91307	4.73394064559
99.359101	-2.891114	4.73384683333
99.34325	-2.869159	4.73376186284
99.327399	-2.847203	4.73352591477
99.311549	-2.825247	4.73342685481
100.142419	-3.928865	5.06847947562
100.126534	-3.906923	5.07166320138
100.110649	-3.88498	5.07476248473
100.094765	-3.863037	5.0782335385
100.078881	-3.841094	5.08011050536
100.062999	-3.81915	5.07889468503
100.047117	-3.797206	5.07822937468
100.031237	-3.775262	5.07803283371
100.015357	-3.753318	5.07811035637
99.999477	-3.731373	5.07920378712
99.983599	-3.709428	5.08098688551
99.967721	-3.687482	5.08278010592
99.951844	-3.665537	5.08459396936
99.935968	-3.643591	5.08644032197
99.920093	-3.621644	5.08780422509
99.904218	-3.599698	5.08903481859
99.888344	-3.577751	5.09033458513
99.872471	-3.555804	5.0916402924
99.856599	-3.533856	5.09297353749
99.840727	-3.511909	5.09437276109
99.824856	-3.489961	5.09589698231
99.808986	-3.468012	5.0977248012
99.793117	-3.446064	5.09999567676
99.777248	-3.424115	5.10149801158
99.76138	-3.402166	5.10121020931
99.745513	-3.380217	5.10105225763
99.729646	-3.358267	5.10093386325
99.71378	-3.336317	5.10080108903
99.697915	-3.314367	5.10254526045
99.68205	-3.292417	5.10484737658
99.666187	-3.270466	5.1067262858
99.650323	-3.248515	5.10831874728
99.634461	-3.226564	5.10981227988
99.618599	-3.204613	5.11105648027
99.602738	-3.182661	5.11231667571
99.586878	-3.160709	5.11380212258
99.571018	-3.138757	5.11550593484
99.555159	-3.116805	5.11664032025
99.5393	-3.094852	5.11645489229
99.523442	-3.072899	5.11620352371
99.507585	-3.050946	5.11604030235
99.491729	-3.028993	5.11589621185
99.475873	-3.007039	5.11676995719
99.460017	-2.985085	5.118843114
99.444163	-2.963131	5.12093537401
99.428309	-2.941177	5.12301873137
99.412455	-2.919223	5.12496308488
99.396602	-2.897268	5.1258400898
99.38075	-2.875313	5.12606454018
99.364899	-2.853358	5.12620388696
99.349048	-2.831402	5.12617171788
99.333197	-2.809447	5.1262610314
100.164079	-3.913047	5.46185742488
100.148193	-3.891105	5.46409157147
100.132308	-3.869162	5.46643627252
100.116424	-3.84722	5.46868968659
100.10054	-3.825277	5.46996023834
100.084657	-3.803334	5.47004500938
100.068776	-3.78139	5.47000453536
100.052895	-3.759446	5.47020041519
100.037014	-3.737502	5.47072983354
100.021135	-3.715558	5.47179285578
100.005256	-3.693613	5.47326527207
99.989378	-3.671668	5.47488350704
99.973501	-3.649722	5.47654827516
99.957625	-3.627777	5.47816209229
99.941749	-3.605831	5.47961739405
99.925874	-3.583885	5.48099034316
99.91	-3.561938	5.48236985538
99.894127	-3.539991	5.48372716416
99.878254	-3.518044	5.48502582905
99.862382	-3.496097	5.48629274233
99.846511	-3.474149	5.48759812653
99.830641	-3.452202	5.48902876844
99.814771	-3.430253	5.49056985174
99.798902	-3.408305	5.49176001362
99.783034	-3.386356	5.4924433313
99.767166	-3.364407	5.49302536624
99.7513	-3.342458	5.4936683905
99.735433	-3.320509	5.4944841699
99.719568	-3.298559	5.49586573506
99.703703	-3.276609	5.4974934603
99.687839	-3.254658	5.49900526923
99.671976	-3.232708	5.5003824045
99.656113	-3.210757	5.50171307992
99.640251	-3.188806	5.5030395925
99.62439	-3.166855	5.5044341698
99.608529	-3.144903	5.50591582183
99.592669	-3.122951	5.50733447936
99.57681	-3.100999	5.50828230848
99.560951	-3.079047	5.5085751226
99.545093	-3.057095	5.50857160702
99.529236	-3.035142	5.50856152095
99.513379	-3.013189	5.50875882046
99.497523	-2.991235	5.50961364864
99.481667	-2.969282	5.5111196366
99.465812	-2.947328	5.51289287783
99.449958	-2.925374	5.51468612461
99.434104	-2.90342	5.51627572513
99.418251	-2.881466	5.51742218611
99.402399	-2.859511	5.51821921875
99.386547	-2.837556	5.51885922665
99.370696	-2.815601	5.51945597126
99.354845	-2.793646	5.52026143696
100.185738	-3.897228	5.8552587484
100.169851	-3.875286	5.85654225472
100.153966	-3.853344	5.857913796
100.138082	-3.831402	5.85920444673
100.122198	-3.809459	5.86020398886
100.106315	-3.787516	5.86090650474
100.090433	-3.765573	5.86151286128
100.074552	-3.74363	5.86218332418
100.058671	-3.721686	5.86303236427
100.042792	-3.699742	5.8641675443
100.026913	-3.677797	5.86553550048
100.011034	-3.655853	5.86698709309
99.995157	-3.633908	5.86847696851
99.979281	-3.611963	5.86995779143
99.963405	-3.590017	5.8714310282
99.94753	-3.568071	5.87291977141
99.931655	-3.546125	5.87440512707
99.915782	-3.524179	5.87584510087
99.899909	-3.502232	5.87711449314
99.884037	-3.480285	5.87817307281
99.868165	-3.458338	5.87910081979
99.852295	-3.43639	5.88004667583
99.836425	-3.414442	5.88105484956
99.820556	-3.392494	5.88220230689
99.804687	-3.370546	5.88352830924
99.788819	-3.348597	5.88501458171
99.772952	-3.326648	5.88655326872
99.757086	-3.304699	5.88803285227
99.74122	-3.28275	5.88932179445
99.725355	-3.2608	5.89042259535
99.709491	-3.23885	5.89142969508
99.693628	-3.2169	5.89245010778
99.677765	-3.194949	5.89358062765
99.661902	-3.172999	5.89489072808
99.646041	-3.151048	5.89640448266
99.63018	-3.129097	5.89796167607
99.61432	-3.107145	5.89937389771
99.59846	-3.085193	5.90035186483
99.582601	-3.063241	5.90080430962
99.566743	-3.041289	5.90092907241
99.550885	-3.019337	5.90098974803
99.535028	-2.997384	5.90127920987
99.519172	-2.975431	5.90205330216
99.503316	-2.953478	5.9033258077
99.487461	-2.931525	5.90486730288
99.471606	-2.909571	5.90643879857
99.455753	-2.887617	5.90791938576
99.439899	-2.865663	5.90922331687
99.424047	-2.843709	5.91042501549
99.408194	-2.821754	5.9115775702
99.392343	-2.799799	5.91276205925
99.376492	-2.777844	5.91395123043
100.207396	-3.881408	6.248510891
100.191509	-3.859467	6.24896229458
100.175624	-3.837525	6.24945604422
100.159739	-3.815584	6.24995722202
100.143855	-3.793641	6.25072407329
100.127972	-3.771699	6.25183973115
100.11209	-3.749756	6.25301319695
100.096208	-3.727813	6.25407641404
100.080328	-3.705869	6.25514945859
100.064448	-3.683926	6.25636979078
100.048568	-3.661982	6.25774528599
100.03269	-3.640037	6.25913247522
100.016812	-3.618093	6.26044001153
100.000936	-3.596148	6.26177277036
99.98506	-3.574203	6.26322422855
99.969184	-3.552257	6.26480932161
99.95331	-3.530311	6.26647828281
99.937436	-3.508365	6.26810436684
99.921563	-3.486419	6.26938014981
99.905691	-3.464472	6.27012294867
99.889819	-3.442525	6.27059138397
99.873948	-3.420578	6.27097057799
99.858078	-3.398631	6.27140129201
99.842209	-3.376683	6.27247751348
99.82634	-3.354735	6.27454199053
99.810472	-3.332787	6.27702116618
99.794605	-3.310838	6.27956498728
99.778738	-3.288889	6.28178858465
99.762872	-3.26694	6.28299239646
99.747007	-3.244991	6.28343286622
99.731142	-3.223041	6.28384220307
99.715279	-3.201091	6.28441857913
99.699415	-3.179141	6.28523457127
99.683553	-3.157191	6.28657413567
99.667691	-3.13524	6.28829918298
99.65183	-3.113289	6.29009192957
99.63597	-3.091338	6.29175108858
99.62011	-3.069387	6.2928869339
99.604251	-3.047435	6.29328184781
99.588392	-3.025483	6.29330132587
99.572534	-3.003531	6.29325809687
99.556677	-2.981579	6.29337584108
99.54082	-2.959626	6.29404745356
99.524964	-2.937673	6.29535817232
99.509109	-2.91572	6.29687606121
99.493254	-2.893767	6.29833140171
99.4774	-2.871813	6.29972061039
99.461547	-2.84986	6.30113900271
99.445694	-2.827906	6.30264260272
99.429841	-2.805951	6.30425136184
99.41399	-2.783997	6.30601105575
99.398139	-2.762042	6.3076285331
100.229053	-3.865588	6.64164936679
100.213166	-3.843647	6.64135916547
100.197281	-3.821706	6.6411028237
100.181396	-3.799765	6.64072621118
100.165512	-3.777823	6.64113932056
100.149628	-3.755881	6.64297482463
100.133746	-3.733938	6.64473335584
100.117864	-3.711995	6.64611658479
100.101983	-3.690052	6.64722072599
100.086103	-3.668109	6.64856135941
100.070224	-3.646165	6.65008497905
100.054345	-3.624221	6.651382221
100.038467	-3.602277	6.6524860525
100.02259	-3.580333	6.65352344203
100.006714	-3.558388	6.65496513705
99.990838	-3.536443	6.65665041455
99.974963	-3.514497	6.65847095172
99.959089	-3.492551	6.66049072541
99.943216	-3.470605	6.66197823218
99.927344	-3.448659	6.66212311493
99.911472	-3.426713	6.66213377112
99.895601	-3.404766	6.66204558894
99.87973	-3.382819	6.66160567266
99.863861	-3.360871	6.66223141583
99.847992	-3.338924	6.66557278516
99.832124	-3.316976	6.66902378266
99.816256	-3.295027	6.67253426685
99.800389	-3.273079	6.67607808591
99.784523	-3.25113	6.67682232343
99.768658	-3.229181	6.67622888499
99.752793	-3.207232	6.67609598659
99.736929	-3.185283	6.67625374912
99.721066	-3.163333	6.6765908654
99.705203	-3.141383	6.678092496
99.689341	-3.119432	6.68018359978
99.67348	-3.097482	6.68224004001
99.657619	-3.075531	6.68433261091
99.641759	-3.05358	6.68590100537
99.625899	-3.031629	6.68585215553
99.610041	-3.009677	6.6856964678
99.594183	-2.987725	6.68548048542
99.578325	-2.965773	6.68514116768
99.562468	-2.943821	6.68564303651
99.546612	-2.921868	6.68739030187
99.530756	-2.899916	6.68899568971
99.514902	-2.877963	6.69038066851
99.499047	-2.856009	6.69158620048
99.483193	-2.834056	6.69305419767
99.46734	-2.812102	6.69476437078
99.451488	-2.790148	6.69667383271
99.435636	-2.768194	6.69901465546
99.419784	-2.74624	6.70152597506
100.250709	-3.849768	7.03428692411
100.234823	-3.827827	7.03371723972
100.218937	-3.805887	7.0331146674
100.203052	-3.783945	7.03229416999
100.187167	-3.762004	7.03237314199
100.171284	-3.740062	7.03484115323
100.155401	-3.71812	7.03692629483
100.139519	-3.696178	7.03857088716
100.123638	-3.674235	7.03986706338
100.107757	-3.652292	7.04125513549
100.091878	-3.630349	7.04269934621
100.075999	-3.608405	7.04385346202
100.060121	-3.586461	7.04476411706
100.044244	-3.564517	7.04554343395
100.028367	-3.542572	7.04685760218
100.012491	-3.520628	7.04842476388
99.996617	-3.498683	7.05015682308
99.980742	-3.476737	7.05218757113
99.964869	-3.454792	7.05377755386
99.948996	-3.432846	7.05374107988
99.933124	-3.410899	7.05378250369
99.917253	-3.388953	7.05375735938
99.901382	-3.367006	7.05335381464
99.885512	-3.345059	7.05398136942
99.869643	-3.323112	7.0574820414
99.853775	-3.301164	7.0610100463
99.837907	-3.279216	7.06455762509
99.82204	-3.257268	7.06821911475
99.806174	-3.23532	7.06887041717
99.790308	-3.213371	7.06820358266
99.774443	-3.191422	7.06806298375
99.758579	-3.169473	7.06824304787
99.742715	-3.147524	7.06863577966
99.726852	-3.125574	7.07011647156
99.71099	-3.103624	7.0721732073
99.695128	-3.081674	7.0742219069
99.679267	-3.059723	7.07631091768
99.663407	-3.037773	7.07786036405
99.647548	-3.015822	7.07808141212
99.631689	-2.99387	7.07809428534
99.61583	-2.971919	7.0779850589
99.599973	-2.949967	7.07765281193
99.584116	-2.928015	7.07811855185
99.568259	-2.906063	7.07990262093
99.552403	-2.884111	7.08141520034
99.536548	-2.862158	7.08266408731
99.520694	-2.840205	7.08379640263
99.50484	-2.818252	7.08513819482
99.488986	-2.796298	7.08672632488
99.473133	-2.774345	7.08854967068
99.457281	-2.752391	7.09083534939
99.44143	-2.730437	7.09331377915
100.272365	-3.833947	7.42644159876
100.256478	-3.812007	7.42603141231
100.240592	-3.790066	7.4255711673
100.224707	-3.768126	7.4252819218
100.208822	-3.746184	7.42589469295
100.192938	-3.724243	7.42762813028
100.177055	-3.702301	7.42966008386
100.161173	-3.680359	7.43153445597
100.145292	-3.658417	7.43314995196
100.129411	-3.636474	7.43454058402
100.113532	-3.614531	7.43570508611
100.097652	-3.592588	7.43658967296
100.081774	-3.570644	7.43732589869
100.065897	-3.548701	7.4380530549
100.05002	-3.526757	7.43899158767
100.034144	-3.504812	7.4401442982
100.018269	-3.482867	7.44144955031
100.002394	-3.460922	7.44286813795
99.986521	-3.438977	7.44407294027
99.970648	-3.417032	7.44483477883
99.954775	-3.395086	7.44549735981
99.938904	-3.37314	7.44614886587
99.923033	-3.351193	7.44680915461
99.907163	-3.329246	7.44810696096
99.891294	-3.307299	7.45038493076
99.875425	-3.285352	7.45298922403
99.859557	-3.263405	7.45559693242
99.84369	-3.241457	7.45783846612
99.827823	-3.219509	7.45894979222
99.811957	-3.197561	7.45931449443
99.796092	-3.175612	7.45970525197
99.780228	-3.153663	7.46029913098
99.764364	-3.131714	7.46117625995
99.748501	-3.109765	7.46253971081
99.732638	-3.087815	7.46425513109
99.716777	-3.065865	7.466078993
99.700915	-3.043915	7.46780676726
99.685055	-3.021965	7.46916864927
99.669195	-3.000014	7.46998510861
99.653336	-2.978063	7.47051695268
99.637477	-2.956112	7.47090117857
99.621619	-2.934161	7.47123967479
99.605762	-2.912209	7.47192967537
99.589905	-2.890257	7.47302494659
99.574049	-2.868305	7.47413428344
99.558194	-2.846353	7.47513972474
99.542339	-2.8244	7.47612744763
99.526485	-2.802447	7.47723390465
99.510631	-2.780494	7.47848999665
99.494778	-2.758541	7.47991298099
99.478926	-2.736587	7.48152856659
99.463074	-2.714634	7.48302616891
100.29402	-3.818126	7.81868943379
100.278133	-3.796186	7.81838040763
100.262247	-3.774246	7.81805699849
100.246361	-3.752305	7.81809246107
100.230476	-3.730364	7.81891191225
100.214592	-3.708423	7.8205744769
100.198709	-3.686482	7.82268768472
100.182827	-3.66454	7.82486489377
100.166945	-3.642598	7.82677392269
100.151064	-3.620656	7.82815102355
100.135184	-3.598714	7.82897581286
100.119305	-3.576771	7.82951126196
100.103427	-3.554827	7.82998072626
100.087549	-3.532884	7.83047512968
100.071672	-3.51094	7.83108279872
100.055796	-3.488996	7.83178536463
100.03992	-3.467052	7.83255089537
100.024046	-3.445107	7.83344894569
100.008172	-3.423162	7.83452479696
99.992299	-3.401217	7.83583883563
99.976426	-3.379272	7.83730606424
99.960554	-3.357326	7.83881786554
99.944683	-3.33538	7.84030388477
99.928813	-3.313433	7.84180798671
99.912944	-3.291487	7.84336900184
99.897075	-3.26954	7.84498626483
99.881207	-3.247593	7.8465794054
99.865339	-3.225645	7.84800725614
99.849472	-3.203697	7.84917641099
99.833606	-3.18175	7.85016335112
99.817741	-3.159801	7.8511446965
99.801876	-3.137853	7.85218263537
99.786012	-3.115904	7.85337709831
99.770149	-3.093955	7.85476183965
99.754286	-3.072006	7.85629435626
99.738424	-3.050056	7.85790022645
99.722563	-3.028106	7.85945286781
99.706702	-3.006156	7.86082004254
99.690842	-2.984206	7.86197957929
99.674983	-2.962255	7.86301748783
99.659124	-2.940305	7.86397253562
99.643266	-2.918354	7.86486092194
99.627408	-2.896402	7.86563402041
99.611551	-2.874451	7.86631673584
99.595695	-2.852499	7.86698653007
99.579839	-2.830547	7.86765504637
99.563984	-2.808595	7.86837842025
99.54813	-2.786642	7.86921975164
99.532276	-2.764689	7.87013195717
99.516423	-2.742736	7.87104543096
99.50057	-2.720783	7.87195191829
99.484718	-2.69883	7.87297289637
100.315675	-3.802304	8.21120562779
100.299787	-3.780364	8.21073652557
100.283901	-3.758425	8.21029525695
100.268015	-3.736484	8.21026518546
100.25213	-3.714544	8.21122217743
100.236246	-3.692603	8.21323802991
100.220362	-3.670662	8.21573972416
100.20448	-3.648721	8.2184382204
100.188598	-3.626779	8.22091206814
100.172717	-3.604838	8.22227081257
100.156837	-3.582895	8.22249531612
100.140957	-3.560953	8.22247308671
100.125079	-3.53901	8.22258976521
100.109201	-3.517067	8.22282179156
100.093323	-3.495123	8.22312510484
100.077447	-3.47318	8.22342303519
100.061571	-3.451236	8.22363808232
100.045696	-3.429291	8.22390783688
100.029822	-3.407347	8.22481172811
100.013949	-3.385402	8.22677341192
99.998076	-3.363457	8.22918179344
99.982204	-3.341511	8.23161955309
99.966333	-3.319566	8.23388378263
99.950463	-3.29762	8.23547438032
99.934593	-3.275673	8.2363181545
99.918724	-3.253727	8.23700262412
99.902855	-3.23178	8.23766792933
99.886988	-3.209833	8.23841173985
99.871121	-3.187886	8.2395467591
99.855254	-3.165938	8.2410160395
99.839389	-3.14399	8.24250167733
99.823524	-3.122042	8.24394723537
99.80766	-3.100093	8.24540336421
99.791796	-3.078145	8.24681411404
99.775933	-3.056196	8.24825974136
99.760071	-3.034247	8.24974499575
99.744209	-3.012297	8.25121241087
99.728348	-2.990347	8.2526364949
99.712488	-2.968397	8.25404841977
99.696628	-2.946447	8.2554947419
99.68077	-2.924497	8.25705999734
99.664911	-2.902546	8.25853700287
99.649053	-2.880595	8.25935325561
99.633196	-2.858644	8.25957635839
99.61734	-2.836692	8.25980827766
99.601484	-2.814741	8.26012717836
99.585629	-2.792789	8.26054574512
99.569774	-2.770837	8.2611452563
99.55392	-2.748884	8.26181302484
99.538067	-2.726931	8.26222174791
99.522214	-2.704979	8.26232288679
99.506362	-2.683025	8.26281892434
100.337328	-3.786481	8.60384238147
100.321441	-3.764542	8.60304981323
100.305554	-3.742603	8.6023525776
100.289668	-3.720663	8.60177876898
100.273783	-3.698723	8.60285036857
100.257898	-3.676783	8.60564082323
100.242015	-3.654842	8.60863058802
100.226132	-3.632901	8.6119095124
100.21025	-3.61096	8.61557141393
100.194369	-3.589019	8.61688321492
100.178488	-3.567077	8.61582191034
100.162608	-3.545134	8.61523170346
100.14673	-3.523192	8.61506518993
100.130851	-3.501249	8.61509510894
100.114974	-3.479306	8.61522209266
100.099097	-3.457363	8.61523180237
100.083222	-3.435419	8.6149511796
100.067347	-3.413475	8.61423277392
100.051472	-3.391531	8.61452436671
100.035599	-3.369587	8.61774100429
100.019726	-3.347642	8.62118790489
100.003853	-3.325697	8.62440782987
99.987982	-3.303751	8.62768965303
99.972111	-3.281806	8.62935464861
99.956241	-3.25986	8.62912523012
99.940372	-3.237914	8.62902729583
99.924503	-3.215967	8.628893298
99.908636	-3.19402	8.62869833522
99.892768	-3.172073	8.62991223585
99.876902	-3.150126	8.63203317658
99.861036	-3.128178	8.63391417059
99.845171	-3.106231	8.63565634868
99.829306	-3.084282	8.63737048494
99.813443	-3.062334	8.63877494351
99.79758	-3.040385	8.64017239146
99.781717	-3.018437	8.64159745938
99.765855	-2.996487	8.64303606335
99.749994	-2.974538	8.64447868368
99.734134	-2.952588	8.64606757977
99.718274	-2.930639	8.64779848018
99.702415	-2.908688	8.64989966026
99.686556	-2.886738	8.65238773724
99.670698	-2.864787	8.65310897068
99.654841	-2.842836	8.65258048697
99.638984	-2.820885	8.65247278553
99.623128	-2.798934	8.65258470122
99.607273	-2.776982	8.65267249173
99.591418	-2.75503	8.65321861102
99.575564	-2.733078	8.65387016456
99.55971	-2.711126	8.65389381472
99.543857	-2.689173	8.65306892938
99.528004	-2.667221	8.65227227545
100.358981	-3.770659	8.99586722945
100.343093	-3.74872	8.99521219256
100.327206	-3.726781	8.99470504618
100.31132	-3.704842	8.99416098656
100.295435	-3.682902	8.99534014547
100.27955	-3.660962	8.99827866092
100.263666	-3.639022	9.00121043265
100.247783	-3.617081	9.00439135336
100.231901	-3.59514	9.00798133806
100.21602	-3.573199	9.00920685624
100.200139	-3.551258	9.00810526382
100.184259	-3.529316	9.00749919706
100.16838	-3.507374	9.0073290748
100.152502	-3.485431	9.00737118626
100.136624	-3.463489	9.00745582959
100.120747	-3.441546	9.00741358867
100.104871	-3.419602	9.00701735647
100.088996	-3.397659	9.00599243483
100.073121	-3.375715	9.00583302657
100.057247	-3.353771	9.00978355263
100.041374	-3.331826	9.0135397699
100.025502	-3.309881	9.01689451634
100.00963	-3.287936	9.02004887782
99.993759	-3.265991	9.02160635242
99.977889	-3.244046	9.0214067343
99.96202	-3.2221	9.02110040038
99.946151	-3.200154	9.02068599926
99.930283	-3.178207	9.02013813562
99.914415	-3.15626	9.02133334889
99.898549	-3.134313	9.02354430301
99.882683	-3.112366	9.02549712151
99.866817	-3.090419	9.02730063421
99.850953	-3.068471	9.02903950242
99.835089	-3.046523	9.03054894656
99.819225	-3.024575	9.0319922158
99.803363	-3.002626	9.03347080233
99.787501	-2.980677	9.0349206858
99.771639	-2.958728	9.03636957691
99.755779	-2.936779	9.03795850519
99.739919	-2.914829	9.03970827242
99.724059	-2.89288	9.04178814232
99.7082	-2.870929	9.04425992665
99.692342	-2.848979	9.04509852253
99.676485	-2.827029	9.04479969741
99.660628	-2.805078	9.04489686387
99.644771	-2.783127	9.04519310538
99.628916	-2.761175	9.04548589025
99.613061	-2.739224	9.04604926531
99.597206	-2.717272	9.04661293172
99.581352	-2.69532	9.04660286765
99.565499	-2.673368	9.04587838655
99.549646	-2.651415	9.04550904453
100.380633	-3.754835	9.38706446525
100.364745	-3.732897	9.38723469401
100.348858	-3.710958	9.38749574562
100.332972	-3.689019	9.38799509292
100.317086	-3.66708	9.38926894371
100.301201	-3.645141	9.39129259283
100.285317	-3.623201	9.39354682982
100.269434	-3.60126	9.39589249182
100.253552	-3.57932	9.39804224121
100.23767	-3.557379	9.39914285595
100.221789	-3.535438	9.39926371283
100.205909	-3.513496	9.39926540828
100.19003	-3.491555	9.39940124299
100.174151	-3.469613	9.39962536881
100.158273	-3.44767	9.39985975591
100.142396	-3.425728	9.39999408669
100.12652	-3.403785	9.39997741895
100.110644	-3.381842	9.39993661785
100.09477	-3.359898	9.40087377995
100.078896	-3.337954	9.40337300043
100.063022	-3.31601	9.40636600502
100.04715	-3.294066	9.40921314978
100.031278	-3.272121	9.41159065327
100.015407	-3.250176	9.41296938678
99.999536	-3.228231	9.41332716633
99.983667	-3.206285	9.41325544418
99.967798	-3.18434	9.41305545412
99.951929	-3.162393	9.41310660504
99.936062	-3.140447	9.41399182834
99.920195	-3.118501	9.41554354095
99.904329	-3.096554	9.41725922373
99.888463	-3.074606	9.41896568428
99.872598	-3.052659	9.42062858708
99.856734	-3.030711	9.42223979392
99.84087	-3.008763	9.42380453078
99.825008	-2.986815	9.42535918205
99.809145	-2.964867	9.42684673488
99.793284	-2.942918	9.42830333588
99.777423	-2.920969	9.42973071678
99.761563	-2.89902	9.43120683184
99.745703	-2.87707	9.43281324082
99.729844	-2.855121	9.43441020454
99.713986	-2.833171	9.43553196737
99.698128	-2.81122	9.43628185455
99.682271	-2.78927	9.43709119049
99.666414	-2.767319	9.43797804194
99.650558	-2.745368	9.43880655732
99.634703	-2.723417	9.43952805738
99.618848	-2.701465	9.44004128111
99.602994	-2.679514	9.44023120443
99.587141	-2.657562	9.44022180815
99.571288	-2.63561	9.44056144592
100.402285	-3.739012	9.77813570878
100.386396	-3.717074	9.77917620897
100.370509	-3.695135	9.7803443186
100.354622	-3.673197	9.78158353716
100.338737	-3.651258	9.78294131734
100.322852	-3.629319	9.78434657402
100.306967	-3.607379	9.78576443655
100.291084	-3.585439	9.78716856067
100.275201	-3.563499	9.78842203976
100.259319	-3.541559	9.78939934336
100.243438	-3.519618	9.79013783553
100.227558	-3.497677	9.79076092393
100.211679	-3.475735	9.79134863317
100.1958	-3.453794	9.79187585123
100.179922	-3.431852	9.79235521548
100.164045	-3.409909	9.79279871297
100.148168	-3.387967	9.79324694197
100.132292	-3.366024	9.79391944414
100.116417	-3.344081	9.7951544485
100.100543	-3.322137	9.79709744043
100.08467	-3.300194	9.79943452582
100.068797	-3.27825	9.80178062518
100.052925	-3.256305	9.80376823154
100.037054	-3.234361	9.80500846748
100.021183	-3.212416	9.80546512033
100.005313	-3.190471	9.80548486979
99.989444	-3.168525	9.80544425702
99.973575	-3.146579	9.80565548651
99.957707	-3.124633	9.80639661004
99.94184	-3.102687	9.80763011738
99.925974	-3.080741	9.8091117556
99.910108	-3.058794	9.81067766932
99.894243	-3.036847	9.81229299056
99.878379	-3.014899	9.81396201975
99.862515	-2.992952	9.81562998713
99.846652	-2.971004	9.817286519
99.830789	-2.949056	9.81885129229
99.814928	-2.927107	9.82027171981
99.799066	-2.905159	9.82144979598
99.783206	-2.88321	9.82251117733
99.767346	-2.861261	9.82353986
99.751487	-2.839311	9.82465769209
99.735628	-2.817361	9.82595184727
99.71977	-2.795412	9.8274766814
99.703913	-2.773461	9.82917984464
99.688056	-2.751511	9.83087237271
99.6722	-2.72956	9.83232857345
99.656345	-2.707609	9.83329359714
99.64049	-2.685658	9.83383745688
99.624636	-2.663707	9.83423669967
99.608782	-2.641755	9.83466199264
99.592929	-2.619803	9.83523042187
100.423935	-3.723187	10.1691091059
100.408047	-3.70125	10.1710963899
100.392159	-3.679312	10.1731795822
100.376272	-3.657374	10.1751525486
100.360386	-3.635435	10.1765812204
100.344501	-3.613496	10.1773732132
100.328617	-3.591557	10.1779690531
100.312733	-3.569618	10.17849179
100.29685	-3.547678	10.1790110658
100.280968	-3.525738	10.1798489902
100.265087	-3.503797	10.1810693956
100.249207	-3.481857	10.1822519015
100.233327	-3.459916	10.1832768719
100.217448	-3.437974	10.1841617572
100.20157	-3.416033	10.1848917916
100.185692	-3.394091	10.1855869557
100.169816	-3.372148	10.1864236092
100.15394	-3.350206	10.1874798674
100.138065	-3.328263	10.1888375963
100.12219	-3.30632	10.1905003228
100.106316	-3.284377	10.1924710148
100.090443	-3.262433	10.1946099313
100.074571	-3.240489	10.1965756442
100.0587	-3.218545	10.1977365488
100.042829	-3.1966	10.1979333377
100.026959	-3.174655	10.1977786382
100.011089	-3.15271	10.1976248028
99.99522	-3.130765	10.1977331128
99.979352	-3.108819	10.1984064323
99.963485	-3.086873	10.1995959825
99.947618	-3.064927	10.2009734641
99.931753	-3.042981	10.2024227724
99.915887	-3.021034	10.2039620685
99.900023	-2.999087	10.2056872634
99.884159	-2.97714	10.2074858522
99.868295	-2.955192	10.2092778655
99.852433	-2.933244	10.2110092387
99.836571	-2.911296	10.212421299
99.820709	-2.889348	10.2132851713
99.804849	-2.867399	10.2138231273
99.788989	-2.84545	10.2141999066
99.773129	-2.823501	10.2147206387
99.757271	-2.801552	10.2161651049
99.741412	-2.779602	10.2185634423
99.725555	-2.757652	10.2212408113
99.709698	-2.735702	10.2239441227
99.693842	-2.713752	10.226277216
99.677986	-2.691802	10.2273349294
99.662131	-2.669851	10.227689221
99.646276	-2.6479	10.2281894421
99.630423	-2.625948	10.228994823
99.614569	-2.603997	10.2298162777
100.445585	-3.707363	10.5599314896
100.429697	-3.685425	10.5630343574
100.413809	-3.663488	10.5660125445
100.397922	-3.64155	10.5690058226
100.382036	-3.619612	10.5705649722
100.36615	-3.597673	10.5703564834
100.350266	-3.575735	10.570179867
100.334382	-3.553796	10.5699783984
100.318499	-3.531856	10.5695757455
100.302617	-3.509916	10.570234548
100.286735	-3.487976	10.5722034969
100.270854	-3.466036	10.5738812317
100.254975	-3.444095	10.5753073234
100.239095	-3.422154	10.5765291302
100.223217	-3.400213	10.5774109426
100.207339	-3.378271	10.5782764565
100.191462	-3.35633	10.5793311869
100.175586	-3.334387	10.580688729
100.159711	-3.312445	10.5821190909
100.143836	-3.290502	10.5835360912
100.127962	-3.268559	10.5852989232
100.112089	-3.246616	10.587402698
100.096217	-3.224672	10.5897903499
100.080345	-3.202728	10.5910205979
100.064474	-3.180784	10.590473297
100.048604	-3.15884	10.5900074411
100.032734	-3.136895	10.5896494623
100.016865	-3.11495	10.5894163568
100.000997	-3.093004	10.5901062709
99.985129	-3.071059	10.5915075974
99.969262	-3.049113	10.5928877687
99.953396	-3.027167	10.5941783937
99.937531	-3.00522	10.5955698377
99.921666	-2.983274	10.5974243236
99.905802	-2.961327	10.5993646581
99.889938	-2.93938	10.6012836395
99.874076	-2.917432	10.603274841
99.858213	-2.895484	10.604928216
99.842352	-2.873536	10.6052816733
99.826491	-2.851588	10.605276294
99.810631	-2.82964	10.6049990322
99.794771	-2.807691	10.6044070391
99.778912	-2.785742	10.6060117774
99.763054	-2.763793	10.6097087988
99.747196	-2.741843	10.6132253572
99.731339	-2.719893	10.6168286934
99.715482	-2.697943	10.6206654208
99.699627	-2.675993	10.6212000945
99.683771	-2.654043	10.6211369614
99.667917	-2.632092	10.6217821392
99.652062	-2.610141	10.6230348279
99.636209	-2.58819	10.6246156976
100.467235	-3.691538	10.9514832392
100.451346	-3.669601	10.9551784583
100.435458	-3.647664	10.9584824228
100.419571	-3.625726	10.9618171813
100.403684	-3.603788	10.963408279
100.387799	-3.58185	10.9628074375
100.371914	-3.559912	10.9623739746
100.35603	-3.537973	10.9619590053
100.340147	-3.516034	10.9613367648
100.324264	-3.494095	10.961915726
100.308382	-3.472155	10.9639948347
100.292502	-3.450215	10.9658032758
100.276621	-3.428275	10.9673370737
100.260742	-3.406334	10.9687307951
100.244864	-3.384393	10.9697518552
100.228986	-3.362452	10.9707525409
100.213109	-3.34051	10.9719484884
100.197232	-3.318568	10.9733754329
100.181357	-3.296626	10.9748102764
100.165482	-3.274684	10.9761280202
100.149608	-3.252741	10.9777421841
100.133734	-3.230798	10.9796627041
100.117862	-3.208855	10.9818421716
100.10199	-3.186911	10.9829545158
100.086118	-3.164968	10.9825107525
100.070248	-3.143023	10.982112128
100.054378	-3.121079	10.9817799523
100.038509	-3.099134	10.9814691833
100.022641	-3.077189	10.9821926378
100.006773	-3.055244	10.9836490344
99.990906	-3.033299	10.984987385
99.975039	-3.011353	10.9861958981
99.959174	-2.989407	10.987479906
99.943309	-2.96746	10.9893600665
99.927444	-2.945514	10.9912690022
99.911581	-2.923567	10.9931781726
99.895718	-2.90162	10.9951270583
99.879855	-2.879672	10.9967578134
99.863994	-2.857725	10.9970466034
99.848132	-2.835777	10.9969818142
99.832272	-2.813829	10.9966783168
99.816412	-2.79188	10.9960828633
99.800553	-2.769931	10.9977602158
99.784695	-2.747983	11.0015279169
99.768837	-2.726033	11.0051270249
99.752979	-2.704084	11.0086584288
99.737123	-2.682134	11.0119013325
99.721266	-2.660184	11.0131698594
99.705411	-2.638234	11.0136931643
99.689556	-2.616284	11.0146336354
99.673702	-2.594333	11.0161592969
