99.396602	-2.897268	5.1258400898
99.386034	-2.882631	5.12600690698
99.375466	-2.867994	5.12612371389
99.364899	-2.853358	5.12620388696
99.354331	-2.838721	5.1261973089
99.343764	-2.824084	5.12611504994
99.333197	-2.809447	5.1262610314
100.162154	-3.925634	5.32987687605
100.151564	-3.911006	5.33154135623
100.140973	-3.896378	5.33326451942
100.130383	-3.881749	5.33502448489
100.119793	-3.867121	5.3368232102
100.109204	-3.852492	5.33859674392
100.098615	-3.837864	5.3397838712
100.088026	-3.823235	5.34000283405
100.077438	-3.808606	5.33974657436
100.06685	-3.793977	5.33951001785
100.056263	-3.779348	5.33943068593
100.045675	-3.764718	5.33948640524
100.035088	-3.750089	5.33969431084
100.024502	-3.735459	5.34016769738
100.013916	-3.720829	5.34095859805
100.00333	-3.706199	5.34196642968
99.992744	-3.691569	5.34305779346
99.982159	-3.676939	5.3441851656
99.971574	-3.662309	5.34532345217
99.96099	-3.647679	5.34647443911
99.950406	-3.633048	5.34758145326
99.939822	-3.618417	5.34856639427
99.929239	-3.603787	5.34946550901
99.918656	-3.589156	5.35035326732
99.908073	-3.574525	5.35124409143
99.89749	-3.559894	5.35213181237
99.886908	-3.545262	5.35302435888
99.876327	-3.530631	5.35390647845
99.865745	-3.515999	5.35478086688
99.855164	-3.501368	5.35566284518
99.844583	-3.486736	5.35657743028
99.834003	-3.472104	5.35756363067
99.823423	-3.457472	5.35864848546
99.812843	-3.44284	5.35982409365
99.802263	-3.428207	5.36093573225
99.791684	-3.413575	5.36165217745
99.781105	-3.398943	5.36196167968
99.770527	-3.38431	5.3621588216
99.759948	-3.369677	5.36236233984
99.749371	-3.355044	5.36260610629
99.738793	-3.340411	5.36285173882
99.728216	-3.325778	5.36329037944
99.717639	-3.311145	5.36415413619
99.707062	-3.296512	5.36533959443
99.696486	-3.281878	5.36657348746
99.68591	-3.267245	5.36769543746
99.675334	-3.252611	5.36872379867
99.664758	-3.237977	5.36968731837
99.654183	-3.223343	5.37062352446
99.643608	-3.208709	5.37151928808
99.633034	-3.194075	5.37239623199
99.62246	-3.179441	5.37328761147
99.611886	-3.164806	5.37423735263
99.601312	-3.150172	5.37522952505
99.590739	-3.135537	5.37625046563
99.580166	-3.120903	5.377135481
99.569593	-3.106268	5.37768625328
99.55902	-3.091633	5.37786403978
99.548448	-3.076998	5.37785320334
99.537876	-3.062363	5.37778815314
99.527305	-3.047728	5.37773646787
99.516733	-3.033092	5.37771394755
99.506162	-3.018457	5.3778206808
99.495591	-3.003821	5.37828102553
99.485021	-2.989186	5.37918842654
99.474451	-2.97455	5.38035850087
99.463881	-2.959914	5.38160739937
99.453311	-2.945278	5.38287085426
99.442742	-2.930642	5.38412823591
99.432172	-2.916006	5.38528505501
99.421604	-2.901369	5.38624325152
99.411035	-2.886733	5.38687920947
99.400467	-2.872097	5.38731648943
99.389899	-2.85746	5.38766597361
99.379331	-2.842823	5.38796145793
99.368763	-2.828187	5.38820341249
99.358196	-2.81355	5.38847908541
99.347629	-2.798913	5.38896921587
100.176594	-3.915088	5.59244426761
100.166003	-3.90046	5.5936206681
100.155412	-3.885832	5.59490789989
100.144822	-3.871204	5.59624672833
100.134232	-3.856576	5.59758108454
100.123643	-3.841947	5.59881752108
100.113054	-3.827319	5.59970535905
100.102465	-3.81269	5.60016158719
100.091877	-3.798061	5.60034072168
100.081289	-3.783432	5.60045201717
100.070701	-3.768803	5.60061406489
100.060114	-3.754174	5.60088055495
100.049527	-3.739545	5.60127246217
100.03894	-3.724915	5.60184407487
100.028354	-3.710286	5.60260872088
100.017768	-3.695656	5.6035317464
100.007182	-3.681026	5.60453786777
99.996597	-3.666396	5.60559052621
99.986012	-3.651766	5.60665307322
99.975428	-3.637136	5.60771973303
99.964843	-3.622505	5.60875075303
99.954259	-3.607875	5.60973396623
99.943676	-3.593244	5.61069734678
99.933093	-3.578614	5.61163584751
99.92251	-3.563983	5.61257650113
99.911927	-3.549352	5.61350417168
99.901345	-3.53472	5.61442304503
99.890763	-3.520089	5.61529099068
99.880182	-3.505458	5.61612450625
99.869601	-3.490826	5.61692935998
99.85902	-3.476195	5.61771287291
99.848439	-3.461563	5.61852318509
99.837859	-3.446931	5.61938847345
99.827279	-3.432299	5.6202866697
99.816699	-3.417667	5.62114819721
99.80612	-3.403035	5.62189261173
99.795541	-3.388402	5.62251987371
99.784962	-3.37377	5.62309068767
99.774384	-3.359137	5.62369005949
99.763806	-3.344505	5.62429838961
99.753228	-3.329872	5.62494084832
99.742651	-3.315239	5.62567638906
99.732074	-3.300606	5.62653908634
99.721497	-3.285973	5.62749193594
99.710921	-3.271339	5.6284625429
99.700345	-3.256706	5.62937196133
99.689769	-3.242072	5.63023757606
99.679193	-3.227439	5.63106811588
99.668618	-3.212805	5.63191660292
99.658043	-3.198171	5.63277916583
99.647468	-3.183537	5.63367109738
99.636894	-3.168903	5.63461469904
99.62632	-3.154269	5.63559589538
99.615746	-3.139634	5.63659650185
99.605173	-3.125	5.63755036908
99.594599	-3.110365	5.63835178309
99.584027	-3.095731	5.63891949954
99.573454	-3.081096	5.6392185289
99.562882	-3.066461	5.63933790932
99.55231	-3.051826	5.63936239002
99.541738	-3.037191	5.63936876816
99.531167	-3.022556	5.63943799164
99.520595	-3.007921	5.6396408284
99.510024	-2.993285	5.64011704478
99.499454	-2.97865	5.64088708517
99.488884	-2.964014	5.64188189586
99.478313	-2.949378	5.64297767268
99.467744	-2.934742	5.64413305599
99.457174	-2.920107	5.64524911958
99.446605	-2.90547	5.64631740987
99.436036	-2.890834	5.647239736
99.425467	-2.876198	5.64800290104
99.414899	-2.861562	5.6486509058
99.404331	-2.846925	5.64923236873
99.393763	-2.832289	5.64976502989
99.383195	-2.817652	5.65029061175
99.372628	-2.803015	5.65085644721
99.362061	-2.788379	5.65151488212
100.191033	-3.904542	5.85486152303
100.180442	-3.889914	5.85566746001
100.169851	-3.875286	5.85654225472
100.159261	-3.860658	5.85745752325
100.148671	-3.84603	5.85836063034
100.138082	-3.831402	5.85920444673
100.127492	-3.816774	5.85989883487
100.116904	-3.802145	5.86046555942
100.106315	-3.787516	5.86090650474
100.095727	-3.772888	5.86130496159
100.085139	-3.758259	5.86171781005
100.074552	-3.74363	5.86218332418
100.063965	-3.729001	5.86272424817
100.053378	-3.714371	5.86338270672
100.042792	-3.699742	5.8641675443
100.032206	-3.685112	5.86506291198
100.02162	-3.670483	5.86600945665
100.011034	-3.655853	5.86698709309
100.000449	-3.641223	5.86797830107
99.989865	-3.626593	5.86897312591
99.979281	-3.611963	5.86995779143
99.968697	-3.597332	5.87094313919
99.958113	-3.582702	5.87191958517
99.94753	-3.568071	5.87291977141
99.936947	-3.55344	5.87391973739
99.926364	-3.53881	5.87489485039
99.915782	-3.524179	5.87584510087
99.9052	-3.509547	5.87672256613
99.894618	-3.494916	5.87748890329
99.884037	-3.480285	5.87817307281
99.873456	-3.465653	5.87880785258
99.862875	-3.451022	5.87941321388
99.852295	-3.43639	5.88004667583
99.841715	-3.421758	5.88070793013
99.831135	-3.407126	5.88141541524
99.820556	-3.392494	5.88220230689
99.809977	-3.377862	5.8830702869
99.799398	-3.36323	5.88401416864
99.788819	-3.348597	5.88501458171
99.778241	-3.333965	5.88603702064
99.767664	-3.319332	5.8870653882
99.757086	-3.304699	5.88803285227
99.746509	-3.290066	5.88892466892
99.735932	-3.275433	5.8897148944
99.725355	-3.2608	5.89042259535
99.714779	-3.246167	5.89109551723
99.704203	-3.231533	5.89176376595
99.693628	-3.2169	5.89245010778
99.683052	-3.202266	5.893178123
99.672477	-3.187633	5.89398424067
99.661902	-3.172999	5.89489072808
99.651328	-3.158365	5.89588706629
99.640754	-3.143731	5.89692699238
99.63018	-3.129097	5.89796167607
99.619606	-3.114462	5.89893296856
99.609033	-3.099828	5.8997530529
99.59846	-3.085193	5.90035186483
99.587887	-3.070559	5.90069560523
99.577315	-3.055924	5.90086621011
99.566743	-3.041289	5.90092907241
99.556171	-3.026654	5.90096356071
99.545599	-3.012019	5.90104774534
99.535028	-2.997384	5.90127920987
99.524457	-2.982749	5.90172676395
99.513887	-2.968113	5.90243778382
99.503316	-2.953478	5.9033258077
99.492746	-2.938842	5.90434741832
99.482176	-2.924207	5.905397346
99.471606	-2.909571	5.90643879857
99.461037	-2.894935	5.90743974891
99.450468	-2.880299	5.90836809938
99.439899	-2.865663	5.90922331687
99.429331	-2.851027	5.91003364759
99.418762	-2.83639	5.91080846504
99.408194	-2.821754	5.9115775702
99.397627	-2.807118	5.91236341492
99.387059	-2.792481	5.91315332547
99.376492	-2.777844	5.91395123043
100.205472	-3.893995	6.11719697748
100.194881	-3.879368	6.11766800108
100.18429	-3.86474	6.11816176285
100.1737	-3.850112	6.11867980749
100.16311	-3.835484	6.11919364116
100.15252	-3.820856	6.11970348147
100.141931	-3.806228	6.12025360312
100.131342	-3.7916	6.12085984445
100.120753	-3.776971	6.12151807368
100.110165	-3.762343	6.12217576955
100.099577	-3.747714	6.12281641339
100.088989	-3.733085	6.12344230288
100.078402	-3.718456	6.12409901673
100.067815	-3.703827	6.12481911599
100.057229	-3.689198	6.1256426467
100.046643	-3.674568	6.12654920706
100.036057	-3.659939	6.12747591493
100.025472	-3.645309	6.12841794416
100.014887	-3.630679	6.12934072395
100.004302	-3.616049	6.13025050925
99.993717	-3.601419	6.13116845664
99.983133	-3.586789	6.13213027474
99.97255	-3.572159	6.13314452206
99.961966	-3.557528	6.13418571315
99.951383	-3.542898	6.13524710163
99.9408	-3.528267	6.13631165054
99.930218	-3.513636	6.13733372938
99.919636	-3.499005	6.13822302773
99.909054	-3.484374	6.13892167775
99.898473	-3.469743	6.13945928714
99.887892	-3.455112	6.13989447613
99.877311	-3.44048	6.14029015658
99.86673	-3.425849	6.14065668328
99.85615	-3.411217	6.14106781575
99.84557	-3.396585	6.14160895699
99.834991	-3.381953	6.14243178389
99.824412	-3.367321	6.1435663705
99.813833	-3.352689	6.14491314131
99.803254	-3.338057	6.14634696717
99.792676	-3.323425	6.14781168476
99.782098	-3.308792	6.14923416648
99.771521	-3.294159	6.15048585965
99.760943	-3.279527	6.15139281459
99.750367	-3.264894	6.1520046677
99.73979	-3.250261	6.1524323246
99.729213	-3.235628	6.15282813145
99.718637	-3.220994	6.15327389052
99.708062	-3.206361	6.15377629177
99.697486	-3.191728	6.15435767278
99.686911	-3.177094	6.15510908269
99.676336	-3.16246	6.15603997607
99.665762	-3.147826	6.15711892886
99.655187	-3.133193	6.15823400907
99.644613	-3.118559	6.15936245526
99.63404	-3.103924	6.16044176819
99.623466	-3.08929	6.16133826929
99.612893	-3.074656	6.161980414
99.602321	-3.060021	6.162346093
99.591748	-3.045387	6.16247171356
99.581176	-3.030752	6.16250802431
99.570604	-3.016117	6.16251268891
99.560032	-3.001482	6.16255287302
99.549461	-2.986847	6.16272941998
99.53889	-2.972212	6.16313136774
99.528319	-2.957577	6.16380533483
99.517748	-2.942942	6.16468991387
99.507178	-2.928306	6.16569236183
99.496608	-2.913671	6.16669982144
99.486038	-2.899035	6.16768630141
99.475469	-2.884399	6.16864481813
99.4649	-2.869763	6.16957669695
99.454331	-2.855128	6.17049405506
99.443762	-2.840491	6.1714343541
99.433194	-2.825855	6.17239177014
99.422626	-2.811219	6.17337991127
99.412058	-2.796583	6.17440625873
99.40149	-2.781946	6.17544033801
99.390923	-2.76731	6.17637342102
100.21991	-3.883449	6.379490506
100.209319	-3.868821	6.37963341848
100.198728	-3.854194	6.37976094283
100.188138	-3.839566	6.37991329725
100.177548	-3.824939	6.38004427948
100.166958	-3.810311	6.38021268372
100.156369	-3.795683	6.38058162356
100.14578	-3.781054	6.38128174275
100.135191	-3.766426	6.3821881295
100.124602	-3.751798	6.38310136757
100.114014	-3.737169	6.38395404392
100.103427	-3.72254	6.38473330603
100.09284	-3.707912	6.38545502309
100.082253	-3.693283	6.38621523729
100.071666	-3.678653	6.38709033435
100.06108	-3.664024	6.38803793678
100.050494	-3.649395	6.38897017017
100.039908	-3.634765	6.38985981694
100.029323	-3.620136	6.39070051339
100.018738	-3.605506	6.39151733456
100.008154	-3.590876	6.39236747132
99.99757	-3.576246	6.39330437834
99.986986	-3.561616	6.39433818171
99.976402	-3.546986	6.39542722623
99.965819	-3.532355	6.39657354595
99.955236	-3.517725	6.39773973828
99.944654	-3.503094	6.39889599629
99.934072	-3.488463	6.39986023927
99.92349	-3.473832	6.40046806153
99.912908	-3.459201	6.40078594346
99.902327	-3.44457	6.40100195141
99.891746	-3.429939	6.40116782326
99.881166	-3.415307	6.4012969572
99.870585	-3.400676	6.40137262245
99.860006	-3.386044	6.40164108599
99.849426	-3.371412	6.40245660023
99.838847	-3.356781	6.40395549276
99.828268	-3.342149	6.40578856059
99.817689	-3.327516	6.40769226562
99.807111	-3.312884	6.4096201138
99.796533	-3.298252	6.411526454
99.785955	-3.283619	6.41315965874
99.775378	-3.268987	6.41409951264
99.764801	-3.254354	6.41436077648
99.754224	-3.239721	6.41441469962
99.743648	-3.225088	6.41453307421
99.733071	-3.210455	6.41473373679
99.722495	-3.195822	6.41502428793
99.71192	-3.181189	6.41543381532
99.701345	-3.166555	6.41609348928
99.69077	-3.151922	6.41708398934
99.680195	-3.137288	6.41829179765
99.669621	-3.122654	6.419557753
99.659047	-3.10802	6.42081727973
99.648473	-3.093386	6.4220370985
99.637899	-3.078752	6.4231130631
99.627326	-3.064118	6.42383812855
99.616753	-3.049484	6.42410650816
99.606181	-3.034849	6.42414635869
99.595608	-3.020215	6.42408895773
99.585036	-3.00558	6.42402161296
99.574465	-2.990945	6.42396626416
99.563893	-2.97631	6.42398953751
99.553322	-2.961675	6.42430627635
99.542751	-2.94704	6.42503272739
99.53218	-2.932405	6.42601384147
99.52161	-2.91777	6.42705327679
99.51104	-2.903134	6.42805879063
99.50047	-2.888499	6.42899259557
99.489901	-2.873863	6.42989592877
99.479331	-2.859228	6.43078697989
99.468762	-2.844592	6.43177058868
99.458194	-2.829956	6.4328279331
99.447625	-2.81532	6.43391967849
99.437057	-2.800684	6.43509932871
99.426489	-2.786048	6.43638597366
99.415921	-2.771411	6.43773758113
99.405354	-2.756775	6.43889874319
100.234349	-3.872902	6.64176611261
100.223757	-3.858275	6.64153015793
100.213166	-3.843647	6.64135916547
100.202576	-3.82902	6.64119872028
100.191985	-3.814392	6.64097645786
100.181396	-3.799765	6.64072621118
100.170806	-3.785137	6.64078572405
100.160217	-3.770509	6.64168087562
100.149628	-3.755881	6.64297482463
100.13904	-3.741252	6.64419269402
100.128452	-3.726624	6.64523093217
100.117864	-3.711995	6.64611658479
100.107277	-3.697367	6.64686903941
100.09669	-3.682738	6.64760286425
100.086103	-3.668109	6.64856135941
100.075517	-3.65348	6.64959665625
100.064931	-3.638851	6.65053730386
100.054345	-3.624221	6.651382221
100.04376	-3.609592	6.65213840843
100.033175	-3.594962	6.65283143407
100.02259	-3.580333	6.65352344203
100.012006	-3.565703	6.65442975371
100.001422	-3.551073	6.65551807877
99.990838	-3.536443	6.65665041455
99.980255	-3.521812	6.6578514589
99.969672	-3.507182	6.65912802233
99.959089	-3.492551	6.66049072541
99.948507	-3.477921	6.66166112373
99.937925	-3.46329	6.66209699263
99.927344	-3.448659	6.66212311493
99.916762	-3.434028	6.66212460277
99.906181	-3.419397	6.66212707783
99.895601	-3.404766	6.66204558894
99.88502	-3.390134	6.66178782924
99.87444	-3.375503	6.66150456701
99.863861	-3.360871	6.66223141583
99.853281	-3.34624	6.66437998639
99.842702	-3.331608	6.66673601786
99.832124	-3.316976	6.66902378266
99.821545	-3.302344	6.67132223837
99.810967	-3.287711	6.67376978925
99.800389	-3.273079	6.67607808591
99.789812	-3.258447	6.67698988659
99.779235	-3.243814	6.67658869787
99.768658	-3.229181	6.67622888499
99.758081	-3.214548	6.67609377989
99.747505	-3.199916	6.67612878932
99.736929	-3.185283	6.67625374912
99.726353	-3.170649	6.67642892251
99.715778	-3.156016	6.676904579
99.705203	-3.141383	6.678092496
99.694628	-3.126749	6.67948704552
99.684054	-3.112116	6.68086501141
99.67348	-3.097482	6.68224004001
99.662906	-3.082848	6.6836323336
99.652332	-3.068214	6.68501008895
99.641759	-3.05358	6.68590100537
99.631186	-3.038946	6.68592004883
99.620613	-3.024312	6.6857957829
99.610041	-3.009677	6.6856964678
99.599469	-2.995043	6.68556230131
99.588897	-2.980408	6.68537043817
99.578325	-2.965773	6.68514116768
99.567754	-2.951138	6.68527274615
99.557183	-2.936504	6.68619744218
99.546612	-2.921868	6.68739030187
99.536042	-2.907233	6.68850162976
99.525471	-2.892598	6.68948162111
99.514902	-2.877963	6.69038066851
99.504332	-2.863327	6.69119372129
99.493763	-2.848692	6.69201662073
99.483193	-2.834056	6.69305419767
99.472625	-2.81942	6.69419103074
99.462056	-2.804784	6.69536876495
99.451488	-2.790148	6.69667383271
99.44092	-2.775512	6.69817424457
99.430352	-2.760876	6.69990861561
99.419784	-2.74624	6.70152597506
100.248786	-3.862355	6.90371801101
100.238195	-3.847728	6.90328719197
100.227604	-3.833101	6.90293085751
100.217013	-3.818473	6.90258465449
100.206423	-3.803846	6.90214847955
100.195833	-3.789219	6.90154642508
100.185243	-3.774591	6.90094344338
100.174654	-3.759963	6.90243569613
100.164065	-3.745335	6.90409177701
100.153477	-3.730707	6.9055105985
100.142889	-3.716079	6.90669900839
100.132301	-3.70145	6.90769892797
100.121713	-3.686822	6.90851132053
100.111126	-3.672193	6.90922908435
100.100539	-3.657564	6.91026479873
100.089953	-3.642935	6.91131669415
100.079367	-3.628306	6.91222435277
100.068781	-3.613677	6.91299880255
100.058196	-3.599048	6.91367087958
100.047611	-3.584418	6.91425124888
100.037026	-3.569789	6.91475742819
100.026442	-3.555159	6.91564417223
100.015858	-3.540529	6.91674480536
100.005274	-3.525899	6.91785348584
99.99469	-3.511269	6.91901466673
99.984107	-3.496639	6.92030611014
99.973525	-3.482009	6.92178221995
99.962942	-3.467378	6.92335953878
99.95236	-3.452748	6.92343411345
99.941779	-3.438117	6.92328034503
99.931197	-3.423486	6.92322377999
99.920616	-3.408855	6.92320636817
99.910035	-3.394224	6.92308639367
99.899455	-3.379593	6.92274559455
99.888875	-3.364961	6.92217192821
99.878295	-3.35033	6.92270637922
99.867716	-3.335698	6.92539723919
99.857137	-3.321067	6.92794986829
99.846558	-3.306435	6.9303462348
99.835979	-3.291803	6.93275457364
99.825401	-3.277171	6.93536592108
99.814823	-3.262539	6.93814555071
99.804246	-3.247906	6.93897769394
99.793668	-3.233274	6.93816092829
99.783091	-3.218641	6.93765733737
99.772515	-3.204009	6.93746081397
99.761938	-3.189376	6.93745616871
99.751362	-3.174743	6.9375525622
99.740786	-3.16011	6.93767230748
99.730211	-3.145477	6.93804466732
99.719636	-3.130844	6.93934648114
99.709061	-3.11621	6.94078801166
99.698486	-3.101577	6.94218241219
99.687912	-3.086943	6.94358603182
99.677338	-3.072309	6.94502308895
99.666765	-3.057676	6.94649274943
99.656191	-3.043042	6.9474699766
99.645618	-3.028408	6.94744973818
99.635045	-3.013774	6.94735192246
99.624473	-2.999139	6.94729402329
99.6139	-2.984505	6.94717907726
99.603329	-2.969871	6.94697778295
99.592757	-2.955236	6.94661199282
99.582185	-2.940601	6.94636511246
99.571614	-2.925966	6.94769588828
99.561044	-2.911332	6.94898392915
99.550473	-2.896697	6.95008304723
99.539903	-2.882061	6.95104506201
99.529333	-2.867426	6.95188095088
99.518763	-2.852791	6.95263681542
99.508193	-2.838156	6.95341064679
99.497624	-2.82352	6.9544169801
99.487055	-2.808884	6.9555185094
99.476487	-2.794249	6.95668931366
99.465918	-2.779613	6.95798850722
99.45535	-2.764977	6.95952209926
99.444782	-2.750341	6.96135470036
99.434215	-2.735705	6.96336337494
100.263224	-3.851808	7.16518786017
100.252632	-3.837181	7.16484431463
100.242041	-3.822554	7.16448094726
100.23145	-3.807927	7.16409893978
100.22086	-3.7933	7.16367289652
100.21027	-3.778672	7.16322055532
100.19968	-3.764045	7.16314254274
100.189091	-3.749417	7.16418540665
100.178502	-3.734789	7.16569774169
100.167913	-3.720161	7.16712651271
100.157325	-3.705533	7.1684016192
100.146737	-3.690905	7.16950900906
100.13615	-3.676276	7.17048564502
100.125562	-3.661648	7.17137104756
100.114975	-3.647019	7.17231758717
100.104389	-3.632391	7.17323885231
100.093803	-3.617762	7.17405222458
100.083217	-3.603133	7.17473925709
100.072631	-3.588504	7.17532064422
100.062046	-3.573874	7.17584716873
100.051461	-3.559245	7.17637609039
100.040877	-3.544615	7.17712180739
100.030293	-3.529986	7.17803168604
100.019709	-3.515356	7.1790102038
100.009126	-3.500726	7.18006196729
99.998543	-3.486096	7.18121486441
99.98796	-3.471466	7.1824637992
99.977377	-3.456835	7.18355392279
99.966795	-3.442205	7.18401545624
99.956213	-3.427574	7.18414140551
99.945632	-3.412944	7.18426831519
99.935051	-3.398313	7.18441706466
99.92447	-3.383682	7.18449924435
99.913889	-3.369051	7.18446032086
99.903309	-3.35442	7.18449823851
99.892729	-3.339788	7.18539348979
99.88215	-3.325157	7.1873014889
99.87157	-3.310525	7.18949040081
99.860992	-3.295894	7.19166616569
99.850413	-3.281262	7.19384269585
99.839835	-3.26663	7.19607472402
99.829257	-3.251998	7.19804805931
99.818679	-3.237366	7.19891972384
99.808102	-3.222733	7.19885253816
99.797524	-3.208101	7.19863762096
99.786948	-3.193469	7.19860108099
99.776371	-3.178836	7.19871047504
99.765795	-3.164203	7.19893291745
99.755219	-3.14957	7.19926210563
99.744644	-3.134937	7.19989357037
99.734068	-3.120304	7.20093314947
99.723494	-3.105671	7.20221436339
99.712919	-3.091038	7.20352574796
99.702345	-3.076404	7.2048603236
99.69177	-3.061771	7.20616893271
99.681197	-3.047137	7.20741339173
99.670623	-3.032503	7.20825860469
99.66005	-3.017869	7.20863493534
99.649477	-3.003235	7.20879195867
99.638904	-2.988601	7.20888656165
99.628332	-2.973967	7.20893534698
99.61776	-2.959333	7.20889581133
99.607188	-2.944698	7.20880869898
99.596617	-2.930064	7.20902470793
99.586046	-2.915429	7.20986328887
99.575475	-2.900794	7.21090813758
99.564904	-2.88616	7.21186022746
99.554334	-2.871525	7.21271489781
99.543763	-2.85689	7.21346914731
99.533194	-2.842254	7.21421194399
99.522624	-2.827619	7.21497144694
99.512055	-2.812984	7.21584561554
99.501486	-2.798348	7.21682241388
99.490917	-2.783713	7.21787409105
99.480349	-2.769077	7.21906132772
99.46978	-2.754441	7.22040034242
99.459212	-2.739805	7.22189371607
99.448645	-2.725169	7.22320347975
100.277661	-3.84126	7.42652724061
100.267069	-3.826634	7.42631856782
100.256478	-3.812007	7.42603141231
100.245887	-3.79738	7.42571559501
100.235297	-3.782753	7.42543107892
100.224707	-3.768126	7.4252819218
100.214117	-3.753498	7.42554018064
100.203527	-3.738871	7.42637729307
100.192938	-3.724243	7.42762813028
100.18235	-3.709615	7.42899837772
100.171761	-3.694987	7.43031236894
100.161173	-3.680359	7.43153445597
100.150586	-3.665731	7.43264438544
100.139998	-3.651103	7.433630624
100.129411	-3.636474	7.43454058402
100.118825	-3.621846	7.43534261936
100.108238	-3.607217	7.43601631188
100.097652	-3.592588	7.43658967296
100.087067	-3.577959	7.4370936663
100.076482	-3.56333	7.43755871696
100.065897	-3.548701	7.4380530549
100.055312	-3.534071	7.4386531431
100.044728	-3.519442	7.43935928412
100.034144	-3.504812	7.4401442982
100.02356	-3.490182	7.44098964569
100.012977	-3.475552	7.44191334529
100.002394	-3.460922	7.44286813795
99.991812	-3.446292	7.44373016864
99.98123	-3.431662	7.44436177115
99.970648	-3.417032	7.44483477883
99.960066	-3.402401	7.4452795522
99.949485	-3.38777	7.44573231805
99.938904	-3.37314	7.44614886587
99.928323	-3.358509	7.44655765429
99.917743	-3.343878	7.44712151918
99.907163	-3.329246	7.44810696096
99.896583	-3.314615	7.44954598747
99.886004	-3.299984	7.45123413797
99.875425	-3.285352	7.45298922403
99.864846	-3.270721	7.45473215362
99.854268	-3.256089	7.4564274702
99.84369	-3.241457	7.45783846612
99.833112	-3.226825	7.45871052901
99.822535	-3.212193	7.45911181298
99.811957	-3.197561	7.45931449443
99.801381	-3.182928	7.45956638198
99.790804	-3.168296	7.45987759911
99.780228	-3.153663	7.46029913098
99.769652	-3.13903	7.46084128045
99.759076	-3.124398	7.46156925552
99.748501	-3.109765	7.46253971081
99.737926	-3.095132	7.46366528349
99.727351	-3.080498	7.46486506336
99.716777	-3.065865	7.466078993
99.706202	-3.051232	7.46724822985
99.695629	-3.036598	7.46833347814
99.685055	-3.021965	7.46916864927
99.674482	-3.007331	7.4697650319
99.663909	-2.992697	7.47018685692
99.653336	-2.978063	7.47051695268
99.642763	-2.963429	7.47078347729
99.632191	-2.948795	7.47100866303
99.621619	-2.934161	7.47123967479
99.611048	-2.919526	7.47164565314
99.600477	-2.904892	7.4722755168
99.589905	-2.890257	7.47302494659
99.579335	-2.875622	7.47378894293
99.568764	-2.860988	7.47447702305
99.558194	-2.846353	7.47513972474
99.547624	-2.831718	7.47578946367
99.537054	-2.817082	7.47647856094
99.526485	-2.802447	7.47723390465
99.515916	-2.787812	7.47805627799
99.505347	-2.773176	7.47895208499
99.494778	-2.758541	7.47991298099
99.48421	-2.743905	7.48097658502
99.473642	-2.729269	7.48207277415
99.463074	-2.714634	7.48302616891
100.292098	-3.830713	7.68796392377
100.281506	-3.816086	7.68783286474
100.270915	-3.80146	7.6875953941
100.260324	-3.786833	7.68734741163
100.249733	-3.772206	7.68717447991
100.239143	-3.757579	7.68721692546
100.228553	-3.742952	7.68761325987
100.217964	-3.728324	7.68845297448
100.207374	-3.713697	7.68960867421
100.196786	-3.699069	7.69097276245
100.186197	-3.684441	7.69236563997
100.175609	-3.669813	7.69372072806
100.165021	-3.655185	7.69495851037
100.154434	-3.640557	7.69603576461
100.143847	-3.625929	7.69690661789
100.13326	-3.6113	7.69758541147
100.122674	-3.596672	7.69810728962
100.112088	-3.582043	7.69853501021
100.101502	-3.567414	7.69890945051
100.090917	-3.552785	7.69928348093
100.080332	-3.538156	7.69968413123
100.069747	-3.523527	7.70013982133
100.059163	-3.508898	7.70066563478
100.048579	-3.494268	7.70124708107
100.037995	-3.479639	7.70186110834
100.027412	-3.465009	7.70253976558
100.016829	-3.450379	7.70325748009
100.006246	-3.435749	7.703992925
99.995664	-3.421119	7.70474011964
99.985082	-3.406489	7.70550145873
99.9745	-3.391858	7.70629744946
99.963919	-3.377228	7.70710978297
99.953338	-3.362597	7.70792350706
99.942757	-3.347966	7.7087336093
99.932177	-3.333335	7.70960874671
99.921596	-3.318704	7.71059913542
99.911017	-3.304073	7.71176308724
99.900437	-3.289442	7.71301307201
99.889858	-3.274811	7.71431142163
99.879279	-3.260179	7.71560561904
99.868701	-3.245548	7.71683208718
99.858123	-3.230916	7.71790332433
99.847545	-3.216284	7.71873805769
99.836967	-3.201652	7.71936374169
99.82639	-3.18702	7.7198922283
99.815813	-3.172388	7.72040468661
99.805236	-3.157755	7.72095880052
99.79466	-3.143123	7.72157447835
99.784084	-3.12849	7.7222820806
99.773508	-3.113858	7.7230932634
99.762933	-3.099225	7.72404392526
99.752358	-3.084592	7.72508734607
99.741783	-3.069959	7.72618095554
99.731208	-3.055326	7.72728348346
99.720634	-3.040693	7.72836480595
99.71006	-3.026059	7.72936948854
99.699486	-3.011426	7.73023391687
99.688913	-2.996792	7.73097737171
99.67834	-2.982158	7.73161152787
99.667767	-2.967525	7.73216836883
99.657195	-2.952891	7.73269923083
99.646622	-2.938257	7.73318109764
99.63605	-2.923623	7.73365342519
99.625479	-2.908988	7.73415966936
99.614907	-2.894354	7.73467446529
99.604336	-2.87972	7.73521888963
99.593765	-2.865085	7.73576503009
99.583195	-2.85045	7.73630584833
99.572624	-2.835816	7.73681587882
99.562054	-2.821181	7.73735555458
99.551485	-2.806546	7.73794069443
99.540915	-2.791911	7.73856186215
99.530346	-2.777275	7.73924572987
99.519777	-2.76264	7.73994881179
99.509208	-2.748005	7.74067092782
99.49864	-2.733369	7.74143541538
99.488072	-2.718734	7.74221008501
99.477504	-2.704098	7.74298881335
100.306534	-3.820165	7.94954776149
100.295943	-3.805538	7.94942240656
100.285351	-3.790912	7.94916648829
100.27476	-3.776285	7.94892579711
100.264169	-3.761659	7.94877904451
100.253579	-3.747032	7.9488879889
100.242989	-3.732405	7.94936150592
100.232399	-3.717777	7.95025782987
100.22181	-3.70315	7.95149707966
100.211221	-3.688523	7.95294195923
100.200633	-3.673895	7.95449447339
100.190045	-3.659267	7.95603840979
100.179457	-3.644639	7.95746359188
100.168869	-3.630011	7.95863479049
100.158282	-3.615383	7.95946317053
100.147695	-3.600755	7.95996380036
100.137109	-3.586127	7.96027468038
100.126523	-3.571498	7.96051403266
100.115937	-3.556869	7.96073877045
100.105351	-3.542241	7.96097196236
100.094766	-3.527612	7.96125759799
100.084182	-3.512983	7.96159015487
100.073597	-3.498353	7.96194843936
100.063013	-3.483724	7.96232388915
100.052429	-3.469095	7.96270783388
100.041846	-3.454465	7.96313364323
100.031263	-3.439835	7.96362779996
100.02068	-3.425205	7.96426692781
100.010098	-3.410576	7.965114397
99.999515	-3.395945	7.96615731069
99.988934	-3.381315	7.96733143936
99.978352	-3.366685	7.96853227989
99.967771	-3.352054	7.96974640354
99.95719	-3.337424	7.97091087344
99.94661	-3.322793	7.97201762443
99.93603	-3.308162	7.97301232423
99.92545	-3.293531	7.97391584541
99.91487	-3.2789	7.97478198139
99.904291	-3.264269	7.97565200965
99.893712	-3.249638	7.97650687722
99.883134	-3.235006	7.97734794417
99.872555	-3.220375	7.9781300016
99.861977	-3.205743	7.9789056982
99.8514	-3.191111	7.97968540494
99.840822	-3.176479	7.98044439203
99.830245	-3.161847	7.98120756057
99.819669	-3.147215	7.98198620562
99.809092	-3.132583	7.98277627671
99.798516	-3.11795	7.98362449583
99.78794	-3.103318	7.98450941912
99.777365	-3.088685	7.98546241449
99.766789	-3.074052	7.98644751851
99.756214	-3.059419	7.98747497471
99.74564	-3.044786	7.98851989118
99.735065	-3.030153	7.98953006609
99.724491	-3.01552	7.99050191985
99.713918	-3.000887	7.99141705946
99.703344	-2.986253	7.99226294355
99.692771	-2.97162	7.99306316902
99.682198	-2.956986	7.99384700351
99.671625	-2.942352	7.99462046938
99.661053	-2.927718	7.99538147736
99.650481	-2.913084	7.99607104664
99.639909	-2.89845	7.99663245247
99.629338	-2.883816	7.99706797801
99.618766	-2.869182	7.99741198637
99.608195	-2.854547	7.99775825044
99.597625	-2.839913	7.99811727808
99.587054	-2.825278	7.99848861031
99.576484	-2.810643	7.9988980182
99.565914	-2.796009	7.9993441707
99.555345	-2.781374	7.99986354789
99.544775	-2.766739	8.00039703741
99.534206	-2.752103	8.00093019491
99.523638	-2.737468	8.00141681643
99.513069	-2.722833	8.00185079882
99.502501	-2.708197	8.00233784829
99.491933	-2.693562	8.00295605175
100.320971	-3.809617	8.2113013126
100.310379	-3.794991	8.21106584503
100.299787	-3.780364	8.21073652557
100.289196	-3.765738	8.21041809521
100.278605	-3.751111	8.21020990479
100.268015	-3.736484	8.21026518546
100.257425	-3.721858	8.2107617631
100.246835	-3.707231	8.2117961317
100.236246	-3.692603	8.21323802991
100.225657	-3.677976	8.21487715049
100.215068	-3.663349	8.21662502216
100.20448	-3.648721	8.2184382204
100.193892	-3.634093	8.22016535336
100.183304	-3.619466	8.22152185375
100.172717	-3.604838	8.22227081257
100.16213	-3.590209	8.22248561039
100.151543	-3.575581	8.22247607468
100.140957	-3.560953	8.22247308671
100.130371	-3.546324	8.22253151454
100.119786	-3.531696	8.22264949081
100.109201	-3.517067	8.22282179156
100.098616	-3.502438	8.22302273373
100.088031	-3.487809	8.22322844537
100.077447	-3.47318	8.22342303519
100.066863	-3.45855	8.22358172317
100.05628	-3.443921	8.22371275786
100.045696	-3.429291	8.22390783688
100.035114	-3.414662	8.22439786022
100.024531	-3.400032	8.22536751129
100.013949	-3.385402	8.22677341192
100.003367	-3.370772	8.22836906677
99.992786	-3.356142	8.23000556729
99.982204	-3.341511	8.23161955309
99.971623	-3.326881	8.23316914232
99.961043	-3.31225	8.2345245685
99.950463	-3.29762	8.23547438032
99.939883	-3.282989	8.23607461765
99.929303	-3.268358	8.236541718
99.918724	-3.253727	8.23700262412
99.908145	-3.239096	8.23745098945
99.897566	-3.224464	8.2378986263
99.886988	-3.209833	8.23841173985
99.87641	-3.195201	8.23911954551
99.865832	-3.18057	8.24002227666
99.855254	-3.165938	8.2410160395
99.844677	-3.151306	8.24200988883
99.8341	-3.136674	8.24297665305
99.823524	-3.122042	8.24394723537
99.812948	-3.10741	8.24491589784
99.802372	-3.092777	8.24587748232
99.791796	-3.078145	8.24681411404
99.781221	-3.063512	8.24777990367
99.770646	-3.048879	8.24876395712
99.760071	-3.034247	8.24974499575
99.749496	-3.019614	8.25072226525
99.738922	-3.004981	8.25168710075
99.728348	-2.990347	8.2526364949
99.717775	-2.975714	8.25357881937
99.707202	-2.961081	8.25452477332
99.696628	-2.946447	8.2554947419
99.686056	-2.931814	8.25652615024
99.675483	-2.91718	8.25757860014
99.664911	-2.902546	8.25853700287
99.654339	-2.887912	8.2591777147
99.643768	-2.873278	8.25946523651
99.633196	-2.858644	8.25957635839
99.622625	-2.84401	8.25970880847
99.612055	-2.829375	8.25991089213
99.601484	-2.814741	8.26012717836
99.590914	-2.800106	8.26039495188
99.580344	-2.785471	8.26072819009
99.569774	-2.770837	8.2611452563
99.559205	-2.756202	8.26160954296
99.548636	-2.741567	8.26198750537
99.538067	-2.726931	8.26222174791
99.527498	-2.712296	8.26230007156
99.51693	-2.697661	8.26238902533
99.506362	-2.683025	8.26281892434
100.335406	-3.799069	8.47317064202
100.324814	-3.784443	8.47273572671
100.314223	-3.769816	8.47228850538
100.303632	-3.75519	8.47186256863
100.293041	-3.740564	8.47148548639
100.28245	-3.725937	8.47131618575
100.27186	-3.71131	8.4717817998
100.26127	-3.696683	8.47310207738
100.250681	-3.682056	8.47485020732
100.240092	-3.667429	8.47672420467
100.229503	-3.652802	8.47869580265
100.218915	-3.638175	8.48081111641
100.208326	-3.623547	8.48299728865
100.197739	-3.608919	8.48479030311
100.187151	-3.594292	8.48534056991
100.176564	-3.579664	8.48499427301
100.165978	-3.565036	8.48459861428
100.155391	-3.550407	8.48435362959
100.144805	-3.535779	8.48425518223
100.13422	-3.52115	8.48427476841
100.123635	-3.506522	8.48434810591
100.11305	-3.491893	8.48446088351
100.102465	-3.477264	8.48456024393
100.091881	-3.462635	8.48460658499
100.081297	-3.448006	8.48454158679
100.070713	-3.433377	8.4843374375
100.06013	-3.418747	8.48410421662
100.049547	-3.404118	8.48424987836
100.038964	-3.389488	8.48541416451
100.028382	-3.374858	8.48737389001
100.0178	-3.360229	8.48946315275
100.007218	-3.345598	8.49150314702
99.996637	-3.330968	8.49350600227
99.986056	-3.316338	8.49549566213
99.975475	-3.301708	8.49721994832
99.964895	-3.287077	8.49807884784
99.954315	-3.272446	8.49821045979
99.943735	-3.257816	8.49825296811
99.933156	-3.243185	8.49834894522
99.922577	-3.228554	8.49843181463
99.911998	-3.213923	8.49846630427
99.90142	-3.199291	8.49861253103
99.890841	-3.18466	8.4992250028
99.880264	-3.170028	8.50039838651
99.869686	-3.155397	8.50165427584
99.859109	-3.140765	8.5028558644
99.848532	-3.126133	8.50398823936
99.837955	-3.111501	8.50509037822
99.827379	-3.096869	8.50618851718
99.816803	-3.082237	8.50720703557
99.806227	-3.067604	8.50813440211
99.795652	-3.052972	8.50906488472
99.785077	-3.038339	8.51002425163
99.774502	-3.023707	8.51098312145
99.763927	-3.009074	8.5119428674
99.753353	-2.994441	8.5129015027
99.742779	-2.979808	8.51386861798
99.732205	-2.965175	8.51487328359
99.721632	-2.950542	8.51593410588
99.711059	-2.935908	8.51707364338
99.700486	-2.921275	8.51832537548
99.689913	-2.906641	8.51973051827
99.679341	-2.892007	8.52112256267
99.668769	-2.877374	8.52186753795
99.658197	-2.86274	8.52181361846
99.647626	-2.848106	8.52163343067
99.637055	-2.833471	8.52159003102
99.626484	-2.818837	8.52164964901
99.615913	-2.804203	8.52175263163
99.605343	-2.789568	8.52187521695
99.594773	-2.774934	8.52206024662
99.584203	-2.760299	8.52247904296
99.573634	-2.745664	8.5229501054
99.563065	-2.73103	8.52322674138
99.552496	-2.716395	8.52323913911
99.541927	-2.701759	8.52294097179
99.531358	-2.687124	8.52242412343
99.52079	-2.672489	8.52246989035
100.349842	-3.78852	8.73497777247
100.33925	-3.773894	8.73432339247
100.328658	-3.759268	8.73378623012
100.318067	-3.744642	8.73331892442
100.307476	-3.730016	8.73282244433
100.296885	-3.715389	8.73229008043
100.286295	-3.700763	8.73251992275
100.275705	-3.686136	8.73442614009
100.265116	-3.671509	8.7364779406
100.254526	-3.656882	8.73849140032
100.243938	-3.642255	8.74059269311
100.233349	-3.627628	8.74287943813
100.222761	-3.613001	8.74549192723
100.212173	-3.598373	8.74821134676
100.201586	-3.583745	8.74817521637
100.190999	-3.569118	8.74714388791
100.180412	-3.55449	8.74643990736
100.169825	-3.539862	8.74604457382
100.159239	-3.525233	8.74587729843
100.148654	-3.510605	8.74583351865
100.138068	-3.495977	8.74584082721
100.127483	-3.481348	8.74591692429
100.116899	-3.466719	8.74597191831
100.106314	-3.45209	8.74592005638
100.09573	-3.437461	8.74571516114
100.085146	-3.422832	8.74525851727
100.074563	-3.408203	8.74450609755
100.06398	-3.393574	8.74387660406
100.053397	-3.378944	8.7455062754
100.042815	-3.364315	8.74822386963
100.032233	-3.349685	8.75074744
100.021651	-3.335055	8.75305244907
100.01107	-3.320425	8.75528819393
100.000489	-3.305795	8.75757465714
99.989908	-3.291165	8.7598971844
99.979327	-3.276534	8.76043166834
99.968747	-3.261904	8.76009305668
99.958167	-3.247273	8.7598613081
99.947588	-3.232642	8.75971703581
99.937009	-3.218011	8.75954358822
99.92643	-3.20338	8.75924307339
99.915851	-3.188749	8.75881990005
99.905273	-3.174118	8.75936981155
99.894695	-3.159487	8.76096765937
99.884117	-3.144855	8.76245835542
99.87354	-3.130224	8.76378608713
99.862963	-3.115592	8.76501989139
99.852386	-3.10096	8.76621016632
99.84181	-3.086328	8.76740577965
99.831234	-3.071696	8.76848802008
99.820658	-3.057064	8.76938144698
99.810083	-3.042431	8.77031726576
99.799507	-3.027799	8.7712563737
99.788932	-3.013167	8.77221331214
99.778358	-2.998534	8.77318121023
99.767783	-2.983901	8.77412036774
99.757209	-2.969268	8.77508673191
99.746635	-2.954635	8.77615163348
99.736062	-2.940002	8.77727253372
99.725489	-2.925369	8.77848547837
99.714916	-2.910736	8.77986627555
99.704343	-2.896102	8.78151427175
99.693771	-2.881469	8.78344862848
99.683199	-2.866835	8.78442138757
99.672627	-2.852201	8.78380612533
99.662055	-2.837567	8.78341767273
99.651484	-2.822933	8.78330143475
99.640913	-2.808299	8.78334012428
99.630343	-2.793665	8.78343740728
99.619772	-2.779031	8.78347641613
99.609202	-2.764396	8.78346721728
99.598632	-2.749762	8.78402795401
99.588063	-2.735127	8.78454199444
99.577493	-2.720492	8.78477149466
99.566924	-2.705857	8.7846713053
99.556355	-2.691223	8.78413852139
99.545787	-2.676587	8.78316128633
99.535218	-2.661952	8.78230241119
100.364277	-3.777971	8.99614863467
100.353685	-3.763346	8.99561919257
100.343093	-3.74872	8.99521219256
100.332502	-3.734094	8.99488082705
100.321911	-3.719468	8.99452492522
100.31132	-3.704842	8.99416098656
100.30073	-3.690215	8.99456092938
100.29014	-3.675589	8.99630217317
100.27955	-3.660962	8.99827866092
100.268961	-3.646335	9.00023421434
100.258372	-3.631708	9.00223306069
100.247783	-3.617081	9.00439135336
100.237195	-3.602454	9.00678212483
100.226607	-3.587827	9.00893013628
100.21602	-3.573199	9.00920685624
100.205432	-3.558571	9.00844361646
100.194846	-3.543944	9.00784357129
100.184259	-3.529316	9.00749919706
100.173673	-3.514688	9.00735520852
100.163087	-3.50006	9.00732337509
100.152502	-3.485431	9.00737118626
100.141916	-3.470803	9.00742585149
100.131332	-3.456174	9.00747815891
100.120747	-3.441546	9.00741358867
100.110163	-3.426917	9.00720475212
100.099579	-3.412288	9.00674548738
100.088996	-3.397659	9.00599243483
100.078413	-3.383029	9.00531821537
100.06783	-3.3684	9.00701061684
100.057247	-3.353771	9.00978355263
100.046665	-3.339141	9.0123518295
100.036083	-3.324511	9.01468183176
100.025502	-3.309881	9.01689451634
100.014921	-3.295251	9.01904470879
100.00434	-3.280621	9.02088817139
99.993759	-3.265991	9.02160635242
99.983179	-3.251361	9.0215146598
99.972599	-3.23673	9.02130606505
99.96202	-3.2221	9.02110040038
99.95144	-3.207469	9.02084400156
99.940861	-3.192838	9.02049900693
99.930283	-3.178207	9.02013813562
99.919704	-3.163576	9.02064897516
99.909126	-3.148945	9.02208223725
99.898549	-3.134313	9.02354430301
99.887971	-3.119682	9.02485946449
99.877394	-3.10505	9.02610716761
99.866817	-3.090419	9.02730063421
99.856241	-3.075787	9.02848096955
99.845665	-3.061155	9.02956556349
99.835089	-3.046523	9.03054894656
99.824513	-3.031891	9.03151035024
99.813938	-3.017259	9.03248707438
99.803363	-3.002626	9.03347080233
99.792788	-2.987994	9.03443243222
99.782213	-2.973361	9.03538641343
99.771639	-2.958728	9.03636957691
99.761065	-2.944095	9.03741167799
99.750492	-2.929462	9.03851656132
99.739919	-2.914829	9.03970827242
99.729345	-2.900196	9.04103925948
99.718773	-2.885563	9.04260027563
99.7082	-2.870929	9.04425992665
99.697628	-2.856296	9.04510695854
99.687056	-2.841662	9.0449765147
99.676485	-2.827029	9.04479969741
99.665913	-2.812395	9.04481835064
99.655342	-2.797761	9.04498496055
99.644771	-2.783127	9.04519310538
99.634201	-2.768493	9.04538552014
99.623631	-2.753858	9.04562184229
99.613061	-2.739224	9.04604926531
99.602491	-2.724589	9.04647951021
99.591922	-2.709955	9.04669145803
99.581352	-2.69532	9.04660286765
99.570784	-2.680685	9.04620539894
99.560215	-2.66605	9.0455635446
99.549646	-2.651415	9.04550904453
100.378712	-3.767422	9.25674009853
100.36812	-3.752797	9.25665566924
100.357528	-3.738171	9.2565785749
100.346936	-3.723546	9.25653542826
100.336345	-3.70892	9.25654776111
100.325754	-3.694293	9.25671861198
100.315164	-3.679667	9.25738939882
100.304574	-3.665041	9.25867996056
100.293984	-3.650414	9.26027530729
100.283395	-3.635788	9.26194257338
100.272806	-3.621161	9.26366194772
100.262217	-3.606534	9.26544535129
100.251629	-3.591907	9.26723070733
100.241041	-3.57728	9.26861038063
100.230453	-3.562652	9.26914850104
100.219866	-3.548025	9.26905927014
100.209279	-3.533397	9.26884530199
100.198692	-3.51877	9.26870982523
100.188106	-3.504142	9.26870027414
100.17752	-3.489514	9.26876454071
100.166935	-3.474886	9.26887793589
100.156349	-3.460257	9.26899257506
100.145765	-3.445629	9.2690887147
100.13518	-3.431	9.26910779186
100.124596	-3.416372	9.2690179457
100.114012	-3.401743	9.26880480413
100.103428	-3.387114	9.26854759007
100.092845	-3.372485	9.26874363498
100.082262	-3.357856	9.27002903875
100.07168	-3.343226	9.27210586722
100.061097	-3.328597	9.27430506213
100.050516	-3.313967	9.2764387487
100.039934	-3.299338	9.27842131928
100.029353	-3.284708	9.28024195125
100.018772	-3.270078	9.2816658142
100.008191	-3.255448	9.28244770189
99.997611	-3.240818	9.28268455473
99.987031	-3.226187	9.28265932963
99.976451	-3.211557	9.2825189791
99.965872	-3.196926	9.28234472598
99.955293	-3.182296	9.28215418573
99.944714	-3.167665	9.28214428561
99.934135	-3.153034	9.28263874454
99.923557	-3.138403	9.28364197347
99.912979	-3.123772	9.28483628556
99.902402	-3.10914	9.28605893046
99.891825	-3.094509	9.28724279556
99.881248	-3.079877	9.28840700934
99.870671	-3.065246	9.28953083144
99.860095	-3.050614	9.29062525989
99.849519	-3.035982	9.29167075189
99.838943	-3.02135	9.29269125595
99.828368	-3.006718	9.29371158222
99.817793	-2.992086	9.29471974718
99.807218	-2.977453	9.29571555491
99.796643	-2.962821	9.29668190319
99.786069	-2.948188	9.29766029904
99.775495	-2.933555	9.29864899798
99.764921	-2.918923	9.29965382253
99.754348	-2.90429	9.30073240563
99.743775	-2.889657	9.30190182541
99.733202	-2.875024	9.30315709195
99.722629	-2.86039	9.30435407488
99.712057	-2.845757	9.30516161015
99.701485	-2.831123	9.30556154691
99.690914	-2.81649	9.30583665059
99.680342	-2.801856	9.30617379696
99.669771	-2.787222	9.30659798304
99.6592	-2.772588	9.30704398622
99.648629	-2.757954	9.30747067366
99.638059	-2.74332	9.30790035483
99.627489	-2.728686	9.30833544958
99.616919	-2.714052	9.3087043668
99.60635	-2.699417	9.30893662572
99.59578	-2.684783	9.30895123473
99.585211	-2.670148	9.30881512023
99.574643	-2.655513	9.30869090272
99.564074	-2.640878	9.30893367961
100.393147	-3.756873	9.51727229387
100.382554	-3.742248	9.51757182009
100.371962	-3.727623	9.51788347716
100.361371	-3.712997	9.51824988878
100.350779	-3.698371	9.51866069067
100.340189	-3.683745	9.51922409122
100.329598	-3.669119	9.52001602809
100.319008	-3.654493	9.52108328216
100.308418	-3.639867	9.52231653736
100.297829	-3.62524	9.52363600835
100.287239	-3.610613	9.52496934065
100.276651	-3.595987	9.52631460604
100.266062	-3.58136	9.5275712101
100.255474	-3.566733	9.52857255994
100.244886	-3.552106	9.52918024755
100.234299	-3.537478	9.52947938748
100.223712	-3.522851	9.52962899918
100.213125	-3.508223	9.52977354809
100.202539	-3.493596	9.5299496539
100.191953	-3.478968	9.53015718638
100.181367	-3.46434	9.53037086703
100.170782	-3.449712	9.53058302072
100.160197	-3.435083	9.53077438871
100.149612	-3.420455	9.53091214891
100.139028	-3.405826	9.53102344983
100.128444	-3.391198	9.53111188467
100.117861	-3.376569	9.53132660564
100.107277	-3.36194	9.53188949291
100.096694	-3.347311	9.53302669542
100.086112	-3.332682	9.53464291598
100.075529	-3.318053	9.53645067629
100.064947	-3.303423	9.53829056204
100.054366	-3.288794	9.54003680164
100.043784	-3.274164	9.5415787564
100.033203	-3.259534	9.54279301282
100.022622	-3.244904	9.54356359017
100.012042	-3.230274	9.54393521049
100.001462	-3.215644	9.54403100724
99.990882	-3.201014	9.54398250263
99.980303	-3.186383	9.54390649136
99.969724	-3.171753	9.54386574646
99.959145	-3.157122	9.54401514721
99.948566	-3.142491	9.54447839933
99.937988	-3.12786	9.54526672102
99.92741	-3.113229	9.54625240974
99.916832	-3.098598	9.54732035026
99.906255	-3.083967	9.54842211999
99.895678	-3.069336	9.54952517326
99.885101	-3.054704	9.55062858703
99.874525	-3.040072	9.55172895711
99.863949	-3.025441	9.55280448009
99.853373	-3.010809	9.55387546006
99.842798	-2.996177	9.55494509106
99.832222	-2.981545	9.5559838422
99.821647	-2.966913	9.55700401819
99.811073	-2.95228	9.55800383043
99.800498	-2.937648	9.55893810645
99.789924	-2.923015	9.55985372327
99.779351	-2.908383	9.56075036873
99.768777	-2.89375	9.56164811902
99.758204	-2.879117	9.56258751243
99.747631	-2.864484	9.56355356953
99.737058	-2.849851	9.56448476588
99.726486	-2.835218	9.56530614497
99.715914	-2.820584	9.56601921691
99.705342	-2.805951	9.56669339316
99.694771	-2.791317	9.56742152622
99.684199	-2.776684	9.56816570683
99.673628	-2.76205	9.56892379521
99.663058	-2.747416	9.56963650825
99.652487	-2.732782	9.57024396053
99.641917	-2.718148	9.57074906936
99.631347	-2.703514	9.57112941595
99.620778	-2.688879	9.57140423265
99.610208	-2.674245	9.57154870812
99.599639	-2.65961	9.57165315022
99.58907	-2.644976	9.57179701264
99.578502	-2.630341	9.57215131752
100.407581	-3.746324	9.7778185595
100.396989	-3.731699	9.77847683663
100.386396	-3.717074	9.77917620897
100.375805	-3.702448	9.77995003211
100.365213	-3.687822	9.7807469215
100.354622	-3.673197	9.78158353716
100.344032	-3.658571	9.78248082309
100.333441	-3.643945	9.78339492589
100.322852	-3.629319	9.78434657402
100.312262	-3.614692	9.78529563669
100.301673	-3.600066	9.78624081667
100.291084	-3.585439	9.78716856067
100.280495	-3.570812	9.78803056316
100.269907	-3.556186	9.78877994771
100.259319	-3.541559	9.78939934336
100.248732	-3.526931	9.78992171516
100.238145	-3.512304	9.7903608067
100.227558	-3.497677	9.79076092393
100.216972	-3.483049	9.79115769275
100.206386	-3.468421	9.79153426591
100.1958	-3.453794	9.79187585123
100.185214	-3.439166	9.79219560259
100.174629	-3.424538	9.79249620078
100.164045	-3.409909	9.79279871297
100.15346	-3.395281	9.79308435502
100.142876	-3.380653	9.79343069855
100.132292	-3.366024	9.79391944414
100.121709	-3.351395	9.7946703644
100.111126	-3.336766	9.79574081578
100.100543	-3.322137	9.79709744043
100.089961	-3.307508	9.7986395322
100.079379	-3.292879	9.80023745227
100.068797	-3.27825	9.80178062518
100.058215	-3.26362	9.80316631757
100.047634	-3.24899	9.8042729154
100.037054	-3.234361	9.80500846748
100.026473	-3.219731	9.8053797193
100.015893	-3.205101	9.80550174822
100.005313	-3.190471	9.80548486979
99.994733	-3.17584	9.80544182664
99.984154	-3.16121	9.80546301317
99.973575	-3.146579	9.80565548651
99.962997	-3.131949	9.80608838434
99.952418	-3.117318	9.80676238269
99.94184	-3.102687	9.80763011738
99.931263	-3.088056	9.80861133338
99.920685	-3.073425	9.8096275022
99.910108	-3.058794	9.81067766932
99.899531	-3.044162	9.81175227446
99.888955	-3.029531	9.81284657145
99.878379	-3.014899	9.81396201975
99.867803	-3.000268	9.81507245316
99.857227	-2.985636	9.81618429148
99.846652	-2.971004	9.817286519
99.836077	-2.956372	9.81834887465
99.825502	-2.94174	9.81934563046
99.814928	-2.927107	9.82027171981
99.804353	-2.912475	9.82107574498
99.79378	-2.897842	9.82182795116
99.783206	-2.88321	9.82251117733
99.772633	-2.868577	9.82320110797
99.76206	-2.853944	9.82390684133
99.751487	-2.839311	9.82465769209
99.740915	-2.824678	9.82550015637
99.730342	-2.810045	9.82643381384
99.71977	-2.795412	9.8274766814
99.709199	-2.780778	9.82860720075
99.698628	-2.766145	9.82975646768
99.688056	-2.751511	9.83087237271
99.677486	-2.736877	9.83189964236
99.666915	-2.722243	9.83271060941
99.656345	-2.707609	9.83329359714
99.645775	-2.692975	9.83368544487
99.635205	-2.678341	9.83397395872
99.624636	-2.663707	9.83423669967
99.614067	-2.649073	9.83450801812
99.603498	-2.634438	9.83483478454
