99.466005	-3.207023	3.27955470139
99.45279	-3.188728	3.27988963567
99.439576	-3.170433	3.28146735974
99.426362	-3.152137	3.28328413638
99.413148	-3.133842	3.28486834411
99.399935	-3.115546	3.28629411727
99.386722	-3.09725	3.28762741137
99.37351	-3.078954	3.28891146378
99.360298	-3.060658	3.29018103164
99.347087	-3.042362	3.29147717135
99.333876	-3.024066	3.29276976452
99.320665	-3.005769	3.29402000173
99.307455	-2.987472	3.29507322316
99.294246	-2.969175	3.29562172937
99.281036	-2.950878	3.2957539687
99.267828	-2.932581	3.29575293155
99.254619	-2.914284	3.29566089134
99.241411	-2.895986	3.29563681279
99.228204	-2.877689	3.29618662728
100.066003	-3.998642	3.56848567626
100.052765	-3.980355	3.56882642915
100.039528	-3.962069	3.5691155525
100.026292	-3.943782	3.56944965499
100.013056	-3.925495	3.56984289725
99.99982	-3.907207	3.57052577215
99.986585	-3.88892	3.57157472112
99.973351	-3.870632	3.57272643307
99.960117	-3.852345	3.57376739653
99.946884	-3.834056	3.5747466326
99.933652	-3.815768	3.57570696033
99.92042	-3.79748	3.5766985263
99.907188	-3.779191	3.57775194259
99.893957	-3.760902	3.57886622143
99.880727	-3.742613	3.58002181548
99.867497	-3.724324	3.58119561842
99.854267	-3.706034	3.58242591957
99.841039	-3.687745	3.58376156328
99.82781	-3.669455	3.5851520763
99.814582	-3.651165	3.58655364587
99.801355	-3.632875	3.58793471098
99.788128	-3.614584	3.58925033142
99.774902	-3.596293	3.59038747295
99.761676	-3.578003	3.59120209891
99.748451	-3.559712	3.59176235024
99.735227	-3.54142	3.59217999162
99.722002	-3.523129	3.59250342706
99.708779	-3.504837	3.59299042364
99.695555	-3.486546	3.59396533223
99.682333	-3.468254	3.59556359757
99.669111	-3.449962	3.59745549718
99.655889	-3.431669	3.5994440584
99.642668	-3.413377	3.60144759935
99.629447	-3.395084	3.60319670831
99.616227	-3.376791	3.60422211134
99.603007	-3.358498	3.60461509995
99.589788	-3.340205	3.60488205079
99.576569	-3.321912	3.60525087639
99.563351	-3.303618	3.60574203334
99.550133	-3.285324	3.60624212275
99.536915	-3.267031	3.60665769501
99.523698	-3.248736	3.60701553887
99.510482	-3.230442	3.60730237343
99.497266	-3.212148	3.60751790326
99.48405	-3.193853	3.60776422457
99.470835	-3.175558	3.6083350142
99.457621	-3.157264	3.60936198285
99.444407	-3.138968	3.61061304289
99.431193	-3.120673	3.6118395859
99.417979	-3.102378	3.61301715083
99.404767	-3.084082	3.61421970916
99.391554	-3.065787	3.61543278776
99.378342	-3.047491	3.61671442487
99.365131	-3.029195	3.6180387133
99.35192	-3.010898	3.61935079963
99.338709	-2.992602	3.62054441003
99.325499	-2.974305	3.62151077133
99.312289	-2.956009	3.62210455219
99.299079	-2.937712	3.62238526745
99.28587	-2.919415	3.62249997488
99.272662	-2.901118	3.62259158008
99.259454	-2.882821	3.62283551885
99.246246	-2.864523	3.62348646153
100.084055	-3.985461	3.89399984083
100.070817	-3.967175	3.89491724976
100.05758	-3.948888	3.89587705501
100.044343	-3.930602	3.89682273667
100.031107	-3.912315	3.89775995057
100.017872	-3.894028	3.89866199441
100.004637	-3.875741	3.89948950774
99.991402	-3.857454	3.90022552522
99.978168	-3.839166	3.90092015259
99.964935	-3.820878	3.9016234675
99.951702	-3.80259	3.90239691179
99.93847	-3.784302	3.90331850697
99.925238	-3.766013	3.9043976293
99.912007	-3.747725	3.90558059685
99.898777	-3.729436	3.90683240319
99.885546	-3.711147	3.90809402003
99.872317	-3.692858	3.90939188905
99.859088	-3.674568	3.91070445603
99.845859	-3.656279	3.91200253749
99.832631	-3.637989	3.91330203804
99.819404	-3.619699	3.9145765553
99.806177	-3.601409	3.91578228673
99.792951	-3.583118	3.91688938161
99.779725	-3.564828	3.9178353705
99.766499	-3.546537	3.91866072907
99.753275	-3.528246	3.91944338325
99.74005	-3.509955	3.92021958264
99.726826	-3.491664	3.92108677594
99.713603	-3.473372	3.9221072095
99.70038	-3.45508	3.92325305317
99.687158	-3.436789	3.92449030429
99.673936	-3.418496	3.92579593982
99.660715	-3.400204	3.92710833478
99.647494	-3.381912	3.92833469787
99.634273	-3.363619	3.92938259812
99.621053	-3.345326	3.93024897794
99.607834	-3.327033	3.93101145765
99.594615	-3.30874	3.93173283479
99.581396	-3.290447	3.93243355544
99.568178	-3.272153	3.93310985864
99.554961	-3.25386	3.93371994032
99.541744	-3.235566	3.93427939851
99.528527	-3.217272	3.93481083446
99.515311	-3.198978	3.93534981832
99.502095	-3.180683	3.93591766963
99.48888	-3.162389	3.93654489869
99.475665	-3.144094	3.93725886823
99.462451	-3.125799	3.9380523504
99.449237	-3.107504	3.93888790043
99.436024	-3.089209	3.93978271464
99.422811	-3.070914	3.94077474819
99.409598	-3.052618	3.94192601956
99.396386	-3.034323	3.94322627649
99.383174	-3.016027	3.94461136305
99.369963	-2.997731	3.94599266885
99.356752	-2.979435	3.94724460959
99.343542	-2.961138	3.9482430351
99.330331	-2.942842	3.94885003767
99.317122	-2.924545	3.94917123735
99.303913	-2.906249	3.9493144508
99.290704	-2.887952	3.94945132354
99.277496	-2.869655	3.94976583398
99.264288	-2.851357	3.95044127066
100.102107	-3.97228	4.21945554031
100.088869	-3.953994	4.22099771206
100.075631	-3.935708	4.22263065386
100.062394	-3.917422	4.22424336438
100.049158	-3.899135	4.22574482333
100.035922	-3.880848	4.22687072098
100.022687	-3.862562	4.22747618075
100.009453	-3.844274	4.22780307459
99.996219	-3.825987	4.22808162492
99.982985	-3.807699	4.22844225574
99.969752	-3.789412	4.22896804528
99.95652	-3.771124	4.22981102276
99.943288	-3.752836	4.23095952035
99.930057	-3.734547	4.23227409628
99.916826	-3.716259	4.2336212684
99.903596	-3.69797	4.23499795578
99.890366	-3.679681	4.23634787415
99.877137	-3.661392	4.23763742614
99.863908	-3.643102	4.23886649682
99.85068	-3.624813	4.2400652617
99.837452	-3.606523	4.24124611718
99.824225	-3.588233	4.24239725418
99.810999	-3.569943	4.24350607999
99.797773	-3.551653	4.24456411904
99.784547	-3.533362	4.24560662035
99.771322	-3.515071	4.24669307325
99.758098	-3.496781	4.2478659256
99.744874	-3.478489	4.24908886439
99.73165	-3.460198	4.25011600317
99.718427	-3.441907	4.25084682183
99.705205	-3.423615	4.25147920948
99.691983	-3.405323	4.25212607566
99.678761	-3.387031	4.25280009755
99.66554	-3.368739	4.25361515019
99.652319	-3.350447	4.25470583561
99.639099	-3.332154	4.25596172393
99.62588	-3.313861	4.25714660959
99.612661	-3.295568	4.25820337984
99.599442	-3.277275	4.25916199977
99.586224	-3.258982	4.2600388817
99.573006	-3.240689	4.26081451452
99.559789	-3.222395	4.26156137727
99.546572	-3.204101	4.26234069995
99.533356	-3.185807	4.26319733774
99.52014	-3.167513	4.26404772747
99.506924	-3.149219	4.26469613428
99.493709	-3.130924	4.26511371364
99.480495	-3.11263	4.26548435746
99.467281	-3.094335	4.2659270887
99.454067	-3.07604	4.26646455941
99.440854	-3.057745	4.267205458
99.427641	-3.03945	4.26828082634
99.414429	-3.021154	4.26968215107
99.401217	-3.002859	4.27120110325
99.388006	-2.984563	4.27274453347
99.374795	-2.966267	4.27418438837
99.361584	-2.947971	4.27529491098
99.348374	-2.929675	4.27588059201
99.335164	-2.911378	4.27608841986
99.321955	-2.893082	4.27615506469
99.308746	-2.874785	4.276210359
99.295537	-2.856488	4.27640764844
99.282329	-2.838191	4.27703918839
100.120158	-3.959099	4.54474629298
100.10692	-3.940813	4.5471270206
100.093682	-3.922527	4.5494378443
100.080445	-3.904241	4.55171436584
100.067209	-3.885955	4.55394667128
100.053973	-3.867668	4.55545347859
100.040737	-3.849382	4.55559550765
100.027503	-3.831095	4.55531185927
100.014268	-3.812808	4.55514986932
100.001035	-3.79452	4.55517242003
99.987802	-3.776233	4.55535399927
99.974569	-3.757945	4.55610592197
99.961337	-3.739657	4.55747625591
99.948106	-3.721369	4.5589480122
99.934875	-3.703081	4.56041292795
99.921644	-3.684792	4.56189265868
99.908414	-3.666504	4.56333450769
99.895185	-3.648215	4.56459738917
99.881956	-3.629926	4.56570686461
99.868728	-3.611636	4.56682773146
99.8555	-3.593347	4.56793924246
99.842273	-3.575057	4.56905436517
99.829046	-3.556767	4.57016363381
99.81582	-3.538477	4.57130699199
99.802594	-3.520187	4.57249423012
99.789369	-3.501896	4.57381717163
99.776145	-3.483606	4.5753554017
99.76292	-3.465315	4.57705945182
99.749697	-3.447024	4.57824447749
99.736474	-3.428733	4.57839015386
99.723251	-3.410441	4.57839282869
99.710029	-3.39215	4.57847264875
99.696807	-3.373858	4.57852032182
99.683586	-3.355566	4.57879682761
99.670365	-3.337274	4.5800896195
99.657145	-3.318981	4.58186525807
99.643925	-3.300689	4.58340553368
99.630706	-3.282396	4.58473474205
99.617487	-3.264103	4.58592958855
99.604268	-3.24581	4.58701444653
99.591051	-3.227517	4.58792580403
99.577833	-3.209224	4.58877644023
99.564616	-3.19093	4.58976368642
99.5514	-3.172637	4.59093384528
99.538184	-3.154343	4.59222051205
99.524968	-3.136049	4.59294380429
99.511753	-3.117754	4.59289303872
99.498538	-3.09946	4.59283499721
99.485324	-3.081165	4.59291680311
99.47211	-3.062871	4.59305609243
99.458897	-3.044576	4.59341010118
99.445684	-3.026281	4.59445627279
99.432471	-3.007986	4.59607744793
99.419259	-2.98969	4.597797605
99.406048	-2.971395	4.59952522628
99.392837	-2.953099	4.60127650268
99.379626	-2.934803	4.60271844925
99.366416	-2.916507	4.6030973084
99.353206	-2.898211	4.60307632553
99.339996	-2.879915	4.60301931848
99.326787	-2.861618	4.60292265356
99.313578	-2.843322	4.60280072702
99.30037	-2.825025	4.60327029758
100.138208	-3.945917	4.87061073093
100.12497	-3.927632	4.8736224329
100.111732	-3.909346	4.87628912415
100.098495	-3.89106	4.87895832188
100.085259	-3.872774	4.8819396758
100.072023	-3.854488	4.88441383686
100.058787	-3.836202	4.88336355752
100.045552	-3.817915	4.88250535355
100.032318	-3.799628	4.88209436906
100.019084	-3.781341	4.88191643996
100.005851	-3.763054	4.88183147054
99.992618	-3.744766	4.88251879287
99.979386	-3.726479	4.88411499278
99.966154	-3.708191	4.88566052775
99.952923	-3.689903	4.88717897375
99.939693	-3.671615	4.88873284774
99.926463	-3.653326	4.89034643133
99.913233	-3.635037	4.89151376514
99.900004	-3.616749	4.89249706607
99.886776	-3.598459	4.89356706879
99.873548	-3.58017	4.89465046775
99.86032	-3.561881	4.89572215671
99.847093	-3.543591	4.89682327977
99.833867	-3.525301	4.89801681572
99.820641	-3.507011	4.89926403143
99.807416	-3.488721	4.90067104512
99.794191	-3.470431	4.90237433884
99.780967	-3.45214	4.90453786384
99.767743	-3.433849	4.90614318356
99.754519	-3.415558	4.905478424
99.741297	-3.397267	4.90515220449
99.728074	-3.378976	4.9049785751
99.714852	-3.360684	4.90469012764
99.701631	-3.342392	4.9041459756
99.68841	-3.324101	4.90602980217
99.67519	-3.305808	4.90820507539
99.66197	-3.287516	4.9099294784
99.64875	-3.269224	4.9113629718
99.635531	-3.250931	4.91268154489
99.622313	-3.232638	4.91396855901
99.609095	-3.214345	4.91490654711
99.595877	-3.196052	4.9158458663
99.58266	-3.177759	4.91696213275
99.569443	-3.159465	4.91831256827
99.556227	-3.141172	4.91992781702
99.543011	-3.122878	4.9207723184
99.529796	-3.104584	4.92030593245
99.516581	-3.08629	4.92002768421
99.503367	-3.067996	4.91989345286
99.490153	-3.049701	4.91976875127
99.476939	-3.031406	4.9195877347
99.463726	-3.013112	4.92070788765
99.450514	-2.994817	4.92261156406
99.437301	-2.976521	4.92441683789
99.42409	-2.958226	4.92621298438
99.410878	-2.939931	4.92806428668
99.397667	-2.921635	4.92980134267
99.384457	-2.903339	4.93002030567
99.371247	-2.885043	4.92998451761
99.358037	-2.866747	4.92996557248
99.344828	-2.848451	4.92985492472
99.331619	-2.830154	4.92952199754
99.318411	-2.811858	4.92959690823
100.156258	-3.932735	5.19835119757
100.14302	-3.91445	5.20077019385
100.129782	-3.896165	5.20316849239
100.116545	-3.877879	5.20562550626
100.103308	-3.859593	5.20822641907
100.090072	-3.841307	5.21002968512
100.076836	-3.823021	5.20972281744
100.063601	-3.804735	5.20910164783
100.050367	-3.786448	5.20881627348
100.037133	-3.768161	5.208777463
100.023899	-3.749874	5.20897518963
100.010666	-3.731587	5.20973064447
99.997434	-3.7133	5.21102633084
99.984202	-3.695012	5.2124640906
99.970971	-3.676724	5.21392717784
99.95774	-3.658436	5.21540928675
99.94451	-3.640148	5.21687420257
99.93128	-3.62186	5.21808686308
99.918051	-3.603571	5.21915948366
99.904823	-3.585282	5.2202520806
99.891595	-3.566993	5.22135491314
99.878367	-3.548704	5.22244290204
99.86514	-3.530415	5.22354064148
99.851913	-3.512125	5.2246740648
99.838687	-3.493835	5.22586231694
99.825462	-3.475545	5.22717675567
99.812237	-3.457255	5.22870080903
99.799012	-3.438965	5.23039345896
99.785788	-3.420674	5.23152196582
99.772565	-3.402383	5.23167825591
99.759342	-3.384093	5.23166845641
99.746119	-3.365801	5.23175110948
99.732897	-3.34751	5.23181125487
99.719676	-3.329219	5.23211548422
99.706455	-3.310927	5.2334353274
99.693234	-3.292635	5.23518355618
99.680014	-3.274343	5.2367541188
99.666794	-3.256051	5.23811272611
99.653575	-3.237759	5.23936714449
99.640357	-3.219466	5.24056253315
99.627138	-3.201173	5.24162876641
99.613921	-3.18288	5.24271203919
99.600703	-3.164587	5.24388588088
99.587487	-3.146294	5.24519927541
99.57427	-3.128001	5.24646962362
99.561054	-3.109707	5.24717225524
99.547839	-3.091413	5.24719451266
99.534624	-3.073119	5.24704849058
99.521409	-3.054825	5.24692215979
99.508195	-3.036531	5.24683383004
99.494981	-3.018237	5.24693230393
99.481768	-2.999942	5.24786512817
99.468555	-2.981647	5.24942350613
99.455343	-2.963352	5.25108630449
99.442131	-2.945057	5.25274701027
99.42892	-2.926762	5.25438082372
99.415708	-2.908466	5.25570003832
99.402498	-2.890171	5.25640546489
99.389288	-2.871875	5.25676194231
99.376078	-2.853579	5.25701524147
99.362868	-2.835283	5.25717745223
99.349659	-2.816987	5.25730200458
99.336451	-2.798691	5.25793001993
100.174308	-3.919553	5.52667289185
100.161069	-3.901268	5.52826732158
100.147831	-3.882983	5.53003634609
100.134594	-3.864698	5.53185910834
100.121357	-3.846412	5.53359354966
100.108121	-3.828126	5.53478501461
100.094885	-3.80984	5.53517142479
100.08165	-3.791554	5.53521683162
100.068415	-3.773268	5.53530867435
100.055181	-3.754981	5.53558028052
100.041947	-3.736695	5.53606660912
100.028714	-3.718408	5.53689037922
100.015482	-3.700121	5.53801908156
100.00225	-3.681833	5.53930855104
99.989018	-3.663546	5.54063812273
99.975787	-3.645258	5.54199595141
99.962557	-3.62697	5.54332545059
99.949327	-3.608682	5.54455887975
99.936098	-3.590393	5.54573996037
99.922869	-3.572105	5.54689308478
99.909641	-3.553816	5.54805405596
99.896413	-3.535527	5.54917861681
99.883186	-3.517238	5.55026116355
99.869959	-3.498949	5.5512937682
99.856733	-3.480659	5.55232741695
99.843507	-3.462369	5.55340012169
99.830282	-3.444079	5.55456900421
99.817058	-3.425789	5.55576795299
99.803833	-3.407499	5.55673886622
99.79061	-3.389208	5.55744814796
99.777387	-3.370918	5.55804834873
99.764164	-3.352627	5.55867613205
99.750942	-3.334336	5.55935097609
99.73772	-3.316045	5.56017916366
99.724499	-3.297753	5.56131790417
99.711278	-3.279462	5.56259039325
99.698058	-3.26117	5.56382416423
99.684838	-3.242878	5.56495876569
99.671619	-3.224586	5.56605211574
99.6584	-3.206293	5.5671424513
99.645182	-3.188001	5.56824958181
99.631964	-3.169708	5.56941306961
99.618746	-3.151415	5.57063330151
99.605529	-3.133122	5.57186518147
99.592313	-3.114829	5.57294664035
99.579097	-3.096536	5.57364105301
99.565881	-3.078242	5.57392171484
99.552666	-3.059948	5.57397497484
99.539451	-3.041655	5.57395702653
99.526237	-3.023361	5.57402390149
99.513023	-3.005066	5.57435306995
99.49981	-2.986772	5.57515154803
99.486597	-2.968477	5.57637310872
99.473384	-2.950183	5.57778001537
99.460172	-2.931888	5.57924837911
99.44696	-2.913593	5.58065149791
99.433749	-2.895298	5.58186326426
99.420538	-2.877002	5.58279575174
99.407328	-2.858707	5.58351544076
99.394118	-2.840411	5.58413875601
99.380908	-2.822115	5.58471372139
99.367699	-2.803819	5.58533736895
99.35449	-2.785523	5.58618034163
100.192357	-3.90637	5.85477406056
100.179118	-3.888086	5.85576804508
100.16588	-3.869801	5.85688286812
100.152642	-3.851516	5.85801946538
100.139405	-3.83323	5.85910256651
100.126169	-3.814945	5.8599874988
100.112933	-3.796659	5.86064014445
100.099697	-3.778373	5.86115556761
100.086463	-3.760087	5.86167590421
100.073228	-3.741801	5.86224192614
100.059995	-3.723515	5.86295622692
100.046761	-3.705228	5.86384954928
100.033529	-3.686941	5.86494153672
100.020297	-3.668654	5.86613609369
100.007065	-3.650367	5.86736146965
99.993834	-3.632079	5.86860335418
99.980604	-3.613791	5.86984179916
99.967374	-3.595503	5.87106709509
99.954144	-3.577215	5.8722930617
99.940915	-3.558927	5.87353497887
99.927687	-3.540638	5.87478273634
99.914459	-3.52235	5.87595712936
99.901232	-3.504061	5.87701997003
99.888005	-3.485772	5.877923828
99.874778	-3.467482	5.87872298427
99.861553	-3.449193	5.87949742614
99.848327	-3.430903	5.88028453076
99.835102	-3.412613	5.88113786919
99.821878	-3.394323	5.88209447499
99.808654	-3.376033	5.88317723525
99.795431	-3.357743	5.88438328558
99.782208	-3.339452	5.88565615481
99.768986	-3.321161	5.88693850273
99.755764	-3.30287	5.88814927121
99.742542	-3.284579	5.88922207336
99.729322	-3.266288	5.89016693198
99.716101	-3.247996	5.89101381332
99.702881	-3.229704	5.89184570314
99.689662	-3.211412	5.89271850462
99.676443	-3.19312	5.89367956971
99.663224	-3.174828	5.89477642491
99.650006	-3.156536	5.8960105105
99.636789	-3.138243	5.89732363579
99.623571	-3.11995	5.89858065054
99.610355	-3.101657	5.89966853319
99.597139	-3.083364	5.90041305923
99.583923	-3.065071	5.90078278779
99.570707	-3.046777	5.90090789931
99.557493	-3.028484	5.90095874244
99.544278	-3.01019	5.90106854436
99.531064	-2.991896	5.90141907702
99.517851	-2.973602	5.90214298632
99.504637	-2.955307	5.90320571979
99.491425	-2.937013	5.90447765953
99.478212	-2.918718	5.90579339073
99.465001	-2.900423	5.90708361286
99.451789	-2.882129	5.90825027226
99.438578	-2.863833	5.90933154745
99.425368	-2.845538	5.91033190751
99.412157	-2.827243	5.91128494283
99.398948	-2.808947	5.91227060676
99.385738	-2.790651	5.91325520646
99.372529	-2.772355	5.91424393911
100.210405	-3.893187	6.18271465494
100.197167	-3.874903	6.1832137565
100.183928	-3.856618	6.18371782969
100.17069	-3.838333	6.1842395503
100.157453	-3.820048	6.18477515279
100.144217	-3.801763	6.18541581355
100.13098	-3.783478	6.18621843939
100.117745	-3.765192	6.18713611804
100.10451	-3.746906	6.18801470957
100.091275	-3.72862	6.18884393172
100.078042	-3.710334	6.18971257882
100.064808	-3.692048	6.19067935463
100.051575	-3.673761	6.19179448816
100.038343	-3.655474	6.19296366959
100.025111	-3.637187	6.19410705071
100.01188	-3.6189	6.1952247384
99.99865	-3.600612	6.19636364082
99.985419	-3.582325	6.1975431319
99.97219	-3.564037	6.19883406191
99.958961	-3.545749	6.2001741357
99.945732	-3.52746	6.20153766844
99.932504	-3.509172	6.20283284842
99.919277	-3.490883	6.20390095442
99.90605	-3.472594	6.2046247567
99.892823	-3.454305	6.20512320546
99.879597	-3.436016	6.20554192635
99.866372	-3.417727	6.20593514688
99.853147	-3.399437	6.20642952973
99.839922	-3.381147	6.20733208176
99.826698	-3.362857	6.20884194665
99.813475	-3.344567	6.21071166715
99.800252	-3.326277	6.21267549877
99.787029	-3.307986	6.2146143784
99.773807	-3.289695	6.21626424666
99.760586	-3.271404	6.21729637529
99.747365	-3.253113	6.21781819052
99.734144	-3.234822	6.21822168379
99.720924	-3.21653	6.21870276185
99.707704	-3.198239	6.21927809169
99.694485	-3.179947	6.22006937902
99.681266	-3.161655	6.22117534079
99.668048	-3.143363	6.22254655095
99.65483	-3.12507	6.22400468704
99.641613	-3.106778	6.22542327103
99.628396	-3.088485	6.2266585296
99.61518	-3.070192	6.22748942674
99.601964	-3.051899	6.2278320838
99.588749	-3.033606	6.22790587787
99.575533	-3.015312	6.22788766789
99.562319	-2.997019	6.22791868022
99.549105	-2.978725	6.22817010007
99.535891	-2.960431	6.22883551338
99.522678	-2.942137	6.22991155326
99.509465	-2.923843	6.23115495293
99.496252	-2.905548	6.23240401482
99.48304	-2.887254	6.23359421281
99.469829	-2.868959	6.23476136501
99.456618	-2.850664	6.23594177366
99.443407	-2.832369	6.23715317325
99.430197	-2.814074	6.23842383808
99.416987	-2.795778	6.23978142397
99.403777	-2.777483	6.24114585904
99.390568	-2.759187	6.24229955327
100.228453	-3.880004	6.5106386106
100.215214	-3.86172	6.51058346998
100.201976	-3.843435	6.51056273944
100.188738	-3.825151	6.51051660441
100.175501	-3.806866	6.5104679895
100.162264	-3.788581	6.51077673385
100.149027	-3.770296	6.51185948812
100.135792	-3.752011	6.51323611836
100.122557	-3.733725	6.51446618771
100.109322	-3.715439	6.51550049241
100.096088	-3.697153	6.51642190777
100.082854	-3.678867	6.51744760819
100.069622	-3.660581	6.51868068067
100.056389	-3.642294	6.51985299067
100.043157	-3.624007	6.52091721157
100.029926	-3.60572	6.52188979865
100.016695	-3.587433	6.52284682296
100.003465	-3.569146	6.52399504081
99.990235	-3.550858	6.52534341128
99.977006	-3.53257	6.5267789144
99.963777	-3.514282	6.52829548611
99.950549	-3.495994	6.52984958301
99.937321	-3.477706	6.53099817231
99.924094	-3.459417	6.53140942248
99.910867	-3.441128	6.53154909833
99.897641	-3.422839	6.53164173282
99.884416	-3.40455	6.53161731583
99.87119	-3.38626	6.53151534098
99.857966	-3.367971	6.53219898765
99.844742	-3.349681	6.5344069846
99.831518	-3.331391	6.53703910571
99.818295	-3.313101	6.5396883167
99.805072	-3.294811	6.54240324224
99.79185	-3.27652	6.54478716654
99.778628	-3.258229	6.54559300304
99.765407	-3.239939	6.54539481675
99.752186	-3.221647	6.54532309587
99.738966	-3.203356	6.54546397332
99.725746	-3.185065	6.54572895921
99.712527	-3.166773	6.54624199536
99.699308	-3.148481	6.5474270256
99.68609	-3.130189	6.54905377584
99.672872	-3.111897	6.55070681048
99.659654	-3.093605	6.55234637224
99.646437	-3.075312	6.55392160871
99.633221	-3.05702	6.55489911085
99.620005	-3.038727	6.55501948065
99.606789	-3.020434	6.55492469951
99.593574	-3.002141	6.55479889962
99.580359	-2.983847	6.55463452238
99.567145	-2.965554	6.55459624988
99.553931	-2.94726	6.55525080541
99.540718	-2.928966	6.55655527071
99.527505	-2.910672	6.55789593937
99.514292	-2.892378	6.55911019136
99.50108	-2.874084	6.56021083555
99.487868	-2.855789	6.56128698002
99.474657	-2.837495	6.56254590874
99.461446	-2.8192	6.563928089
99.448235	-2.800905	6.5654161452
99.435025	-2.78261	6.56712302743
99.421816	-2.764314	6.56905858655
99.408606	-2.746019	6.57052285539
100.246501	-3.86682	6.83834480231
100.233262	-3.848536	6.83782879207
100.220023	-3.830252	6.83742773392
100.206785	-3.811968	6.83698908681
100.193547	-3.793684	6.83633861875
100.18031	-3.775399	6.83593589485
100.167074	-3.757114	6.83779414406
100.153838	-3.738829	6.83965818833
100.140603	-3.720544	6.84117147682
100.127368	-3.702258	6.84238305583
100.114134	-3.683972	6.84333516187
100.1009	-3.665686	6.8443772786
100.087667	-3.6474	6.84573822488
100.074435	-3.629114	6.84689424975
100.061203	-3.610827	6.84786074871
100.047971	-3.59254	6.84866065987
100.03474	-3.574253	6.84935043979
100.02151	-3.555966	6.85045622958
100.00828	-3.537679	6.85184818528
99.99505	-3.519391	6.85328196079
99.981821	-3.501104	6.85486085809
99.968593	-3.482816	6.85670454321
99.955365	-3.464527	6.85827213421
99.942138	-3.446239	6.85806249193
99.928911	-3.42795	6.85796172207
99.915685	-3.409662	6.85791659386
99.902459	-3.391373	6.8576908722
99.889234	-3.373084	6.85706004014
99.876009	-3.354794	6.85698659525
99.862785	-3.336505	6.86038855492
99.849561	-3.318215	6.86352368125
99.836338	-3.299925	6.86651767827
99.823115	-3.281635	6.86971686649
99.809892	-3.263345	6.87327363952
99.796671	-3.245054	6.87337064053
99.783449	-3.226764	6.87248806339
99.770228	-3.208473	6.87214484805
99.757008	-3.190182	6.87214052497
99.743788	-3.17189	6.87226232055
99.730569	-3.153599	6.87241691579
99.71735	-3.135308	6.87381460978
99.704131	-3.117016	6.87562423962
99.690913	-3.098724	6.87738142759
99.677695	-3.080432	6.8791459445
99.664478	-3.06214	6.88100652532
99.651261	-3.043847	6.88222508678
99.638045	-3.025554	6.88205591726
99.624829	-3.007262	6.88191592334
99.611614	-2.988969	6.88178310331
99.598399	-2.970676	6.88150221465
99.585185	-2.952382	6.88102111166
99.571971	-2.934089	6.88174881857
99.558757	-2.915795	6.88340343572
99.545544	-2.897501	6.88480451503
99.532331	-2.879207	6.88597076458
99.519119	-2.860913	6.88698276091
99.505907	-2.842619	6.88792001136
99.492695	-2.824325	6.88919864739
99.479484	-2.80603	6.89061526185
99.466274	-2.787735	6.8921763885
99.453064	-2.76944	6.89402987855
99.439854	-2.751145	6.89635918458
99.426644	-2.73285	6.89859887922
100.264548	-3.853636	7.16522398866
100.251308	-3.835353	7.16479469098
100.23807	-3.817069	7.16434847031
100.224831	-3.798785	7.16383906202
100.211594	-3.780501	7.16327199991
100.198357	-3.762216	7.16321974847
100.18512	-3.743931	7.16474694302
100.171884	-3.725647	7.16660671209
100.158649	-3.707362	7.16825324137
100.145414	-3.689076	7.16964641851
100.132179	-3.670791	7.17080780592
100.118946	-3.652505	7.17196817691
100.105712	-3.634219	7.17313051763
100.09248	-3.615933	7.17415091486
100.079247	-3.597647	7.17496670661
100.066016	-3.57936	7.1756651908
100.052785	-3.561074	7.17630902625
100.039554	-3.542787	7.17722421613
100.026324	-3.524499	7.17839995032
100.013094	-3.506212	7.17965258494
99.999865	-3.487925	7.18105168809
99.986637	-3.469637	7.18262084585
99.973409	-3.451349	7.18380617336
99.960181	-3.433061	7.18409791442
99.946954	-3.414772	7.18424961639
99.933728	-3.396484	7.18442931052
99.920502	-3.378195	7.18449891955
99.907277	-3.359906	7.18445032317
99.894052	-3.341617	7.18522263701
99.880827	-3.323328	7.18756579929
99.867603	-3.305038	7.19031055038
99.85438	-3.286749	7.19302073074
99.841157	-3.268459	7.19579518721
99.827934	-3.250169	7.19822291962
99.814712	-3.231879	7.19893764779
99.801491	-3.213588	7.19870644278
99.78827	-3.195298	7.19859640389
99.775049	-3.177007	7.19873250224
99.761829	-3.158716	7.19903609435
99.74861	-3.140425	7.19960450802
99.73539	-3.122133	7.20078646682
99.722172	-3.103842	7.20237527666
99.708953	-3.08555	7.20401920344
99.695736	-3.067258	7.20568824055
99.682518	-3.048966	7.20726721877
99.669302	-3.030674	7.20833425468
99.656085	-3.012382	7.20869848399
99.642869	-2.994089	7.20885613638
99.629654	-2.975796	7.20894184863
99.616439	-2.957503	7.20889700098
99.603224	-2.93921	7.20882404515
99.59001	-2.920917	7.20949534146
99.576796	-2.902624	7.21076984942
99.563583	-2.88433	7.21198140114
99.55037	-2.866036	7.21301505154
99.537157	-2.847743	7.2139257069
99.523945	-2.829449	7.21486306439
99.510734	-2.811154	7.21596904901
99.497522	-2.79286	7.21719746526
99.484312	-2.774565	7.2186041904
99.471101	-2.756271	7.22021736475
99.457891	-2.737976	7.2220768012
99.444682	-2.719681	7.22348675258
100.282594	-3.840452	7.49187590515
100.269355	-3.822168	7.49167445967
100.256116	-3.803885	7.49131549397
100.242877	-3.785601	7.49095820711
100.22964	-3.767317	7.49078993818
100.216402	-3.749033	7.49116182527
100.203166	-3.730749	7.4923477201
100.189929	-3.712464	7.4939669239
100.176694	-3.694179	7.4956572857
100.163459	-3.675894	7.49722150654
100.150224	-3.657609	7.49859645726
100.13699	-3.639324	7.49978920233
100.123757	-3.621038	7.50080093597
100.110524	-3.602752	7.50160609454
100.097292	-3.584466	7.50225884311
100.08406	-3.56618	7.50281846539
100.070829	-3.547893	7.503406534
100.057598	-3.529607	7.50410525217
100.044368	-3.51132	7.50495798544
100.031138	-3.493033	7.50590662632
100.017909	-3.474745	7.50696785376
100.00468	-3.456458	7.50807072372
99.991452	-3.43817	7.50905395222
99.978224	-3.419882	7.50979740539
99.964997	-3.401594	7.51046393276
99.951771	-3.383306	7.51113608261
99.938545	-3.365017	7.51178484638
99.925319	-3.346729	7.51247947168
99.912094	-3.32844	7.51359892413
99.898869	-3.310151	7.51529110837
99.885645	-3.291862	7.51728682243
99.872422	-3.273572	7.51935002772
99.859198	-3.255283	7.5213226671
99.845976	-3.236993	7.52296545491
99.832754	-3.218703	7.52391051487
99.819532	-3.200413	7.52435884466
99.806311	-3.182122	7.52474080224
99.79309	-3.163832	7.52520613436
99.77987	-3.145541	7.52582681714
99.76665	-3.12725	7.52665888144
99.753431	-3.108959	7.52779856911
99.740212	-3.090668	7.52916622864
99.726994	-3.072376	7.53064347912
99.713776	-3.054085	7.53210391439
99.700558	-3.035793	7.53344900412
99.687341	-3.017501	7.53451049192
99.674125	-2.999209	7.53525052419
99.660908	-2.980916	7.53578311839
99.647693	-2.962624	7.5362229813
99.634478	-2.944331	7.53659520327
99.621263	-2.926038	7.53699839071
99.608048	-2.907745	7.53763191867
99.594835	-2.889452	7.53849358909
99.581621	-2.871159	7.53935700512
99.568408	-2.852865	7.54017479923
99.555195	-2.834572	7.54094321817
99.541983	-2.816278	7.54175820283
99.528771	-2.797984	7.54265750204
99.51556	-2.77969	7.54366195548
99.502349	-2.761395	7.54476505506
99.489139	-2.743101	7.5459726548
99.475928	-2.724806	7.54722212962
99.462719	-2.706511	7.54830529986
100.30064	-3.827267	7.81874275162
100.287401	-3.808984	7.81859506176
100.274161	-3.790701	7.81828270572
100.260923	-3.772417	7.81804373549
100.247685	-3.754134	7.81806191891
100.234447	-3.73585	7.81861156298
100.221211	-3.717566	7.81980152313
100.207974	-3.699281	7.82142621802
100.194739	-3.680997	7.82324226022
100.181503	-3.662712	7.82502814864
100.168269	-3.644427	7.82663384794
100.155035	-3.626142	7.82786956197
100.141801	-3.607856	7.82869483414
100.128568	-3.589571	7.82922435209
100.115336	-3.571285	7.82963701124
100.102104	-3.552999	7.83001638215
100.088872	-3.534713	7.8304251166
100.075641	-3.516426	7.83091874366
100.062411	-3.49814	7.83147915468
100.049181	-3.479853	7.83209345796
100.035952	-3.461566	7.83276687333
100.022723	-3.443278	7.8335304552
100.009495	-3.424991	7.8344266143
99.996267	-3.406703	7.83548992667
99.98304	-3.388416	7.83668564657
99.969813	-3.370127	7.83794996334
99.956587	-3.351839	7.83920644681
99.943361	-3.333551	7.84043536971
99.930136	-3.315262	7.84168647754
99.916911	-3.296973	7.84297386038
99.903687	-3.278684	7.84431474137
99.890463	-3.260395	7.8456606268
99.87724	-3.242106	7.84695853167
99.864017	-3.223816	7.84811800218
99.850794	-3.205526	7.84908479185
99.837573	-3.187237	7.84992875317
99.824351	-3.168946	7.85073077933
99.81113	-3.150656	7.85155786118
99.79791	-3.132366	7.85246386983
99.78469	-3.114075	7.85348360582
99.771471	-3.095784	7.85464143418
99.758252	-3.077493	7.85590706738
99.745033	-3.059202	7.8572281954
99.731815	-3.04091	7.85856086051
99.718597	-3.022619	7.85980251002
99.70538	-3.004327	7.86091936103
99.692164	-2.986035	7.86189521214
99.678947	-2.967743	7.86275534023
99.665731	-2.949451	7.86357029943
99.652516	-2.931158	7.86435624652
99.639301	-2.912866	7.86505945872
99.626087	-2.894573	7.86569656507
99.612873	-2.87628	7.86627075504
99.599659	-2.857987	7.86682018407
99.586446	-2.839694	7.86737574441
99.573233	-2.8214	7.86795316543
99.560021	-2.803107	7.86858239159
99.546809	-2.784813	7.86929262325
99.533597	-2.766519	7.87004848882
99.520386	-2.748225	7.87081076826
99.507175	-2.72993	7.87156523918
99.493965	-2.711636	7.87235695863
99.480755	-2.693341	7.87326120745
100.318686	-3.814082	8.14586353996
100.305446	-3.795799	8.14561773072
100.292207	-3.777516	8.14523846013
100.278968	-3.759233	8.14492241666
100.26573	-3.74095	8.14491715307
100.252492	-3.722666	8.14554393564
100.239255	-3.704382	8.14691947164
100.226019	-3.686098	8.14878999534
100.212783	-3.667814	8.15088081988
100.199547	-3.649529	8.15303836707
100.186313	-3.631244	8.15501537534
100.173078	-3.61296	8.1563116714
100.159845	-3.594674	8.15683070192
100.146611	-3.576389	8.15693099225
100.133379	-3.558103	8.15702604102
100.120147	-3.539818	8.15717515969
100.106915	-3.521532	8.15740084124
100.093684	-3.503246	8.15768718454
100.080454	-3.484959	8.15800472132
100.067224	-3.466673	8.1582819483
100.053994	-3.448386	8.15853286427
100.040765	-3.430099	8.15889236567
100.027537	-3.411812	8.15968365343
100.014309	-3.393524	8.16110732303
100.001081	-3.375237	8.16290821477
99.987855	-3.356949	8.16482616286
99.974628	-3.338661	8.16669945247
99.961402	-3.320373	8.1684221918
99.948177	-3.302084	8.16974276134
99.934952	-3.283796	8.17060147371
99.921728	-3.265507	8.17131796304
99.908504	-3.247218	8.17201144054
99.89528	-3.228929	8.17268201446
99.882057	-3.210639	8.1734256978
99.868835	-3.19235	8.17437914911
99.855613	-3.17406	8.17552374908
99.842391	-3.15577	8.17669135938
99.82917	-3.13748	8.17784420226
99.81595	-3.11919	8.17900899208
99.80273	-3.1009	8.1801808901
99.78951	-3.082609	8.18135952047
99.776291	-3.064318	8.18257067386
99.763072	-3.046027	8.18381070106
99.749854	-3.027736	8.18505847008
99.736636	-3.009445	8.18626799064
99.723419	-2.991153	8.18744587886
99.710202	-2.972861	8.18859036325
99.696986	-2.95457	8.18973708623
99.68377	-2.936277	8.1909404447
99.670554	-2.917985	8.19215058136
99.657339	-2.899693	8.19317890236
99.644124	-2.8814	8.193761769
99.63091	-2.863108	8.19401829588
99.617696	-2.844815	8.19425055521
99.604483	-2.826522	8.19455052643
99.59127	-2.808228	8.19490511389
99.578058	-2.789935	8.19533767146
99.564846	-2.771641	8.19589549335
99.551634	-2.753348	8.19646395425
99.538423	-2.735054	8.19690785233
99.525212	-2.71676	8.19715958926
99.512001	-2.698466	8.19741211026
99.498791	-2.680171	8.19816127909
100.33673	-3.800897	8.47321247412
100.323491	-3.782614	8.47269448286
100.310251	-3.764332	8.47211435771
100.297012	-3.746049	8.47160765542
100.283774	-3.727765	8.47131789963
100.270536	-3.709482	8.47190027168
100.257299	-3.691198	8.4737313039
100.244063	-3.672915	8.47600509163
100.230826	-3.65463	8.47843888496
100.217591	-3.636346	8.48108455121
100.204356	-3.618062	8.48376407744
100.191122	-3.599777	8.48530336482
100.177888	-3.581492	8.48506287856
100.164654	-3.563207	8.48455528455
100.151422	-3.544922	8.48430731649
100.138189	-3.526636	8.48425328273
100.124958	-3.50835	8.48433934236
100.111727	-3.490065	8.48447122533
100.098496	-3.471778	8.48458821333
100.085266	-3.453492	8.48458092123
100.072036	-3.435205	8.48437506334
100.058807	-3.416919	8.48407878689
100.045578	-3.398632	8.48454953433
100.03235	-3.380345	8.48658839335
100.019123	-3.362057	8.48921276406
100.005896	-3.34377	8.49175548586
99.992669	-3.325482	8.49425244034
99.979443	-3.307194	8.49664678389
99.966218	-3.288906	8.49803184373
99.952993	-3.270618	8.49821318552
99.939768	-3.252329	8.49829185806
99.926544	-3.23404	8.49840987425
99.91332	-3.215751	8.49846533382
99.900097	-3.197462	8.49864854652
99.886875	-3.179173	8.49962742301
99.873653	-3.160884	8.50118911352
99.860431	-3.142594	8.50270900212
99.84721	-3.124304	8.50412856769
99.833989	-3.106014	8.50550571691
99.820769	-3.087724	8.50684082264
99.807549	-3.069433	8.50802064448
99.79433	-3.051143	8.50918140039
99.781111	-3.032852	8.51037960332
99.767893	-3.014561	8.51159208699
99.754675	-2.99627	8.51278607108
99.741457	-2.977979	8.51398805182
99.72824	-2.959687	8.5152690977
99.715024	-2.941396	8.51663367038
99.701808	-2.923104	8.51816621874
99.688592	-2.904812	8.51991779984
99.675377	-2.88652	8.52151160646
99.662162	-2.868227	8.52189813565
99.648947	-2.849935	8.52164832589
99.635734	-2.831642	8.52159513707
99.62252	-2.813349	8.52169056803
99.609307	-2.795056	8.52183265853
99.596094	-2.776763	8.52202574963
99.582882	-2.75847	8.5225414408
99.56967	-2.740176	8.52307614593
99.556459	-2.721883	8.52326644226
99.543248	-2.703589	8.52298947368
99.530037	-2.685295	8.5223705642
99.516827	-2.667001	8.52284720639
100.354775	-3.787711	8.80044812537
100.341535	-3.769429	8.79960547744
100.328295	-3.751146	8.79897929566
100.315056	-3.732864	8.79839405992
100.301818	-3.714581	8.79771788648
100.28858	-3.696298	8.79800711855
100.275343	-3.678014	8.80061897724
100.262106	-3.659731	8.80316683057
100.24887	-3.641447	8.80575225091
100.235634	-3.623163	8.80862065446
100.222399	-3.604879	8.81200427509
100.209164	-3.586594	8.8140821589
100.19593	-3.56831	8.81265969952
100.182697	-3.550025	8.81176780738
100.169464	-3.53174	8.81134871057
100.156232	-3.513454	8.81122506262
100.143	-3.495169	8.81121869329
100.129768	-3.476883	8.81129616677
100.116538	-3.458597	8.8113304228
100.103307	-3.440311	8.81115948687
100.090078	-3.422025	8.81065271018
100.076848	-3.403738	8.80962110054
100.06362	-3.385452	8.80902691516
100.050391	-3.367165	8.81248471714
100.037164	-3.348878	8.81580783118
100.023937	-3.33059	8.81874474103
100.01071	-3.312303	8.8215512826
99.997484	-3.294015	8.82444875043
99.984258	-3.275727	8.82590145945
99.971033	-3.257439	8.82546171095
99.957808	-3.239151	8.82516705137
99.944584	-3.220862	8.82493981816
99.93136	-3.202574	8.82455276316
99.918137	-3.184285	8.82395196059
99.904914	-3.165996	8.82515141804
99.891692	-3.147707	8.82715728688
99.87847	-3.129417	8.8288851759
99.865249	-3.111128	8.83043803627
99.852028	-3.092838	8.83193668984
99.838808	-3.074548	8.83340207795
99.825588	-3.056258	8.83456759413
99.812368	-3.037967	8.83573017268
99.799149	-3.019677	8.83692408577
99.785931	-3.001386	8.83813596347
99.772713	-2.983095	8.83932353108
99.759495	-2.964804	8.84053120239
99.746278	-2.946513	8.84188407547
99.733061	-2.928221	8.84333663365
99.719845	-2.90993	8.84501195439
99.706629	-2.891638	8.84708572513
99.693414	-2.873346	8.84957744917
99.680199	-2.855054	8.84940411759
99.666984	-2.836762	8.84883138372
99.65377	-2.818469	8.84870296261
99.640557	-2.800177	8.84880289072
99.627343	-2.781884	8.84891144459
99.61413	-2.763591	8.84893326383
99.600918	-2.745298	8.84956610278
99.587706	-2.727005	8.85010429266
99.574495	-2.708711	8.85019779787
99.561283	-2.690418	8.84966668834
99.548073	-2.672124	8.84847116198
99.534862	-2.65383	8.84860645465
100.372819	-3.774525	9.12650324442
100.359579	-3.756243	9.12613256566
100.346339	-3.737961	9.12582634505
100.3331	-3.719678	9.12559146298
100.319861	-3.701396	9.12541138759
100.306623	-3.683113	9.12613220189
100.293386	-3.66483	9.12812991045
100.280149	-3.646546	9.1304088351
100.266912	-3.628263	9.13272019442
100.253677	-3.609979	9.13522589471
100.240441	-3.591695	9.1377878763
100.227207	-3.573411	9.13917644695
100.213973	-3.555127	9.13886783332
100.200739	-3.536842	9.13834126279
100.187506	-3.518557	9.13808900865
100.174273	-3.500272	9.13804190011
100.161041	-3.481987	9.13810827079
100.14781	-3.463702	9.13821723242
100.134579	-3.445416	9.13827031604
100.121349	-3.42713	9.13816726291
100.108119	-3.408844	9.13778510928
100.094889	-3.390558	9.13713363139
100.08166	-3.372271	9.13736598572
100.068432	-3.353985	9.13994343244
100.055204	-3.335698	9.14300042171
100.041977	-3.317411	9.14581092283
100.02875	-3.299123	9.14842246398
100.015524	-3.280836	9.15071860522
100.002298	-3.262548	9.15196135717
99.989072	-3.24426	9.15209641487
99.975848	-3.225972	9.15192895967
99.962623	-3.207684	9.15166735998
99.949399	-3.189396	9.15132861358
99.936176	-3.171107	9.15115828696
99.922953	-3.152818	9.15205416824
99.909731	-3.134529	9.1536798221
99.896509	-3.11624	9.15529354393
99.883287	-3.097951	9.15680946615
99.870066	-3.079661	9.15828566338
99.856846	-3.061371	9.15969717736
99.843626	-3.043081	9.16098902832
99.830406	-3.024791	9.1622291749
99.817187	-3.006501	9.16347147459
99.803968	-2.988211	9.16469700663
99.79075	-2.96992	9.16591492345
99.777532	-2.951629	9.16713740439
99.764315	-2.933338	9.16842537631
99.751098	-2.915047	9.16979341936
99.737882	-2.896756	9.17133506611
99.724666	-2.878464	9.17310391121
99.71145	-2.860172	9.17471987227
99.698235	-2.84188	9.17528262467
99.685021	-2.823588	9.17534532118
99.671806	-2.805296	9.17554491651
99.658593	-2.787004	9.17591917802
99.645379	-2.768711	9.17630664999
99.632166	-2.750419	9.17669774336
99.618954	-2.732126	9.17722732516
99.605742	-2.713833	9.17767064047
99.59253	-2.695539	9.17779010001
99.579319	-2.677246	9.17751342588
99.566108	-2.658952	9.17708486004
99.552897	-2.640659	9.17753947981
100.390862	-3.761339	9.45209480344
100.377622	-3.743057	9.45237869455
100.364382	-3.724775	9.45265834961
100.351143	-3.706493	9.45301378314
100.337904	-3.688211	9.45353135151
100.324666	-3.669928	9.45450183114
100.311428	-3.651645	9.45596819253
100.298191	-3.633362	9.45767888254
100.284955	-3.615079	9.45946872971
100.271719	-3.596795	9.46128580918
100.258483	-3.578511	9.46293230868
100.245249	-3.560228	9.46399270322
100.232014	-3.541943	9.46436131853
100.218781	-3.523659	9.46445790459
100.205547	-3.505374	9.46456354006
100.192315	-3.48709	9.46475210264
100.179082	-3.468805	9.46497228605
100.165851	-3.45052	9.46520685857
100.15262	-3.432234	9.46539737831
100.139389	-3.413949	9.46549046673
100.126159	-3.395663	9.4655224843
100.11293	-3.377377	9.46567473662
100.099701	-3.35909	9.46650882815
100.086472	-3.340804	9.46832658723
100.073244	-3.322517	9.47067327283
100.060017	-3.304231	9.47304983361
100.04679	-3.285944	9.4752514272
100.033563	-3.267656	9.47705870826
100.020337	-3.249369	9.47818170076
100.007112	-3.231081	9.47863148753
99.993887	-3.212794	9.47866409939
99.980662	-3.194506	9.47854331215
99.967438	-3.176217	9.4784431847
99.954215	-3.157929	9.47860629767
99.940992	-3.13964	9.47932311948
99.927769	-3.121352	9.48049266294
99.914547	-3.103063	9.48186064204
99.901325	-3.084774	9.48325625308
99.888104	-3.066484	9.48466167515
99.874884	-3.048195	9.48604269469
99.861663	-3.029905	9.48738223761
99.848444	-3.011615	9.48871789055
99.835224	-2.993325	9.49001957032
99.822006	-2.975035	9.4913113139
99.808787	-2.956744	9.4925486417
99.795569	-2.938454	9.49373416835
99.782352	-2.920163	9.4949028091
99.769135	-2.901872	9.49607152441
99.755918	-2.883581	9.49729467258
99.742702	-2.86529	9.49858544013
99.729487	-2.846998	9.49978780757
99.716271	-2.828707	9.50067196851
99.703056	-2.810415	9.50140796336
99.689842	-2.792123	9.50218955816
99.676628	-2.773831	9.5030295173
99.663415	-2.755538	9.5038627725
99.650202	-2.737246	9.50459015207
99.636989	-2.718953	9.50519331708
99.623777	-2.70066	9.50563203203
99.610565	-2.682367	9.50586232872
99.597353	-2.664074	9.50592894782
99.584142	-2.645781	9.5060520076
99.570932	-2.627487	9.50657132934
100.408905	-3.748152	9.777741546
100.395664	-3.729871	9.77854995137
100.382424	-3.711589	9.779459914
100.369185	-3.693307	9.78044203614
100.355946	-3.675025	9.78147977031
100.342708	-3.656743	9.78259029883
100.32947	-3.63846	9.78375212053
100.316233	-3.620177	9.78493800937
100.302996	-3.601894	9.78611835128
100.28976	-3.583611	9.78727330404
100.276525	-3.565327	9.7883348173
100.26329	-3.547044	9.78918989333
100.250055	-3.52876	9.78985271235
100.236822	-3.510476	9.79041362015
100.223588	-3.492191	9.79091338246
100.210355	-3.473907	9.79138234459
100.197123	-3.455622	9.79183504137
100.183891	-3.437337	9.79224056332
100.17066	-3.419052	9.79261202097
100.157429	-3.400767	9.79296610073
100.144199	-3.382481	9.79338655099
100.13097	-3.364195	9.79401089834
100.11774	-3.345909	9.79502957196
100.104512	-3.327623	9.79656507058
100.091284	-3.309337	9.79844128667
100.078056	-3.29105	9.80043580555
100.064829	-3.272763	9.8023358962
100.051602	-3.254477	9.80389339028
100.038376	-3.236189	9.80493679771
100.02515	-3.217902	9.80540293516
100.011925	-3.199614	9.80550578352
99.998701	-3.181327	9.80545891364
99.985477	-3.163039	9.80545867226
99.972253	-3.144751	9.80569236177
99.95903	-3.126462	9.80631999375
99.945807	-3.108174	9.8072879338
99.932585	-3.089885	9.80848263771
99.919363	-3.071596	9.80976022382
99.906142	-3.053307	9.81108323616
99.892921	-3.035018	9.81243105016
99.879701	-3.016728	9.81382210498
99.866481	-2.998439	9.81521205998
99.853261	-2.980149	9.81659609706
99.840042	-2.961859	9.81794943928
99.826824	-2.943569	9.81922706927
99.813606	-2.925278	9.82037610601
99.800388	-2.906988	9.82136116205
99.787171	-2.888697	9.82225499057
99.773954	-2.870406	9.82310836271
99.760738	-2.852115	9.82399213403
99.747522	-2.833824	9.82495397228
99.734307	-2.815532	9.82607611839
99.721092	-2.797241	9.82734881577
99.707877	-2.778949	9.8287419185
99.694663	-2.760657	9.830178312
99.68145	-2.742365	9.83153428693
99.668236	-2.724073	9.83261116835
99.655024	-2.70578	9.83335197748
99.641811	-2.687488	9.83379178412
99.628599	-2.669195	9.83413278799
99.615388	-2.650902	9.83447282779
99.602176	-2.632609	9.83486673237
99.588966	-2.614315	9.83539810052
100.426947	-3.734965	10.1033015299
100.413707	-3.716684	10.1046968498
100.400467	-3.698403	10.106260141
100.387227	-3.680121	10.1078671358
100.373988	-3.661839	10.1094084994
100.36075	-3.643557	10.1106676689
100.347512	-3.625275	10.1115290298
100.334274	-3.606992	10.1121745236
100.321038	-3.588709	10.1127792219
100.307801	-3.570426	10.1133209299
100.294566	-3.552143	10.1138645094
100.281331	-3.53386	10.1145357739
100.268096	-3.515576	10.1154255308
100.254862	-3.497292	10.1163767813
100.241629	-3.479008	10.1172536898
100.228396	-3.460724	10.1180282786
100.215163	-3.442439	10.1187112136
100.201931	-3.424155	10.1192963909
100.1887	-3.40587	10.1198488334
100.175469	-3.387585	10.1204282234
100.162239	-3.369299	10.1211325224
100.149009	-3.351014	10.1220076915
100.13578	-3.332728	10.1231298066
100.122551	-3.314442	10.1244998226
100.109323	-3.296156	10.12611366
100.096095	-3.27787	10.1278762513
100.082868	-3.259583	10.1296630516
100.069641	-3.241296	10.1312078545
100.056415	-3.223009	10.1321850027
100.043189	-3.204722	10.132496816
100.029963	-3.186435	10.1324459949
100.016739	-3.168147	10.1323366555
100.003514	-3.14986	10.1322688215
99.990291	-3.131572	10.1324601411
99.977067	-3.113284	10.1330162561
99.963844	-3.094995	10.1339503224
99.950622	-3.076707	10.135073749
99.9374	-3.058418	10.1362701305
99.924179	-3.040129	10.1375153547
99.910958	-3.02184	10.1388335329
99.897737	-3.003551	10.1402480673
99.884517	-2.985262	10.1417230654
99.871298	-2.966972	10.1432166358
99.858079	-2.948682	10.1446744426
99.84486	-2.930392	10.1460263058
99.831642	-2.912102	10.1471383106
99.818424	-2.893812	10.1479102557
99.805207	-2.875521	10.1484640082
99.79199	-2.857231	10.1488867832
99.778774	-2.83894	10.1493130415
99.765558	-2.820649	10.1500035189
99.752342	-2.802358	10.1513165232
99.739127	-2.784066	10.1531934519
99.725912	-2.765775	10.1552567677
99.712698	-2.747483	10.157378321
99.699484	-2.729191	10.1594089149
99.686271	-2.710899	10.1609605116
99.673058	-2.692607	10.1616936715
99.659845	-2.674315	10.1620194479
99.646633	-2.656022	10.1624051356
99.633422	-2.637729	10.1629594756
99.62021	-2.619436	10.1636109951
99.606999	-2.601143	10.1642014843
100.444989	-3.721778	10.4286021231
100.431748	-3.703497	10.4307781267
100.418508	-3.685216	10.4330473908
100.405269	-3.666934	10.4353226878
100.392029	-3.648653	10.4375002253
100.378791	-3.630371	10.4390024918
100.365553	-3.612089	10.4393681399
100.352315	-3.593807	10.4393970688
100.339078	-3.575524	10.4394501856
100.325842	-3.557241	10.439446911
100.312606	-3.538958	10.4393733672
100.299371	-3.520675	10.4397810437
100.286136	-3.502392	10.4410552612
100.272902	-3.484108	10.4424515915
100.259669	-3.465824	10.4436682401
100.246435	-3.44754	10.4447155719
100.233203	-3.429256	10.4456475819
100.219971	-3.410972	10.4463830018
100.206739	-3.392687	10.4470425272
100.193508	-3.374402	10.4477859375
100.180278	-3.356117	10.4486889134
100.167048	-3.337832	10.4497690503
100.153818	-3.319546	10.4509386795
100.14059	-3.301261	10.4521681871
100.127361	-3.282975	10.4535932257
100.114133	-3.264689	10.4552437627
100.100906	-3.246402	10.4570786705
100.087679	-3.228116	10.4588806923
100.074453	-3.209829	10.4598811021
100.061227	-3.191542	10.4597556595
100.048001	-3.173255	10.4594196931
100.034776	-3.154968	10.4591360116
100.021552	-3.13668	10.4589315288
100.008328	-3.118393	10.4589106276
99.995104	-3.100105	10.4594593027
99.981881	-3.081817	10.4605118304
99.968659	-3.063529	10.4616681713
99.955437	-3.04524	10.4628065634
99.942215	-3.026952	10.4639176799
99.928994	-3.008663	10.4651717358
99.915774	-2.990374	10.4666831547
99.902553	-2.972085	10.4682525705
99.889334	-2.953795	10.4698432354
99.876115	-2.935506	10.471423626
99.862896	-2.917216	10.4729713899
99.849677	-2.898926	10.4741292263
99.83646	-2.880636	10.4745933602
99.823242	-2.862346	10.4747414621
99.810025	-2.844055	10.4747461601
99.796809	-2.825765	10.4745666181
99.783592	-2.807474	10.4746491462
99.770377	-2.789183	10.476298161
99.757162	-2.770892	10.4790114991
99.743947	-2.7526	10.4817618384
99.730732	-2.734309	10.4845094361
99.717518	-2.716017	10.487404585
99.704305	-2.697725	10.489717159
99.691092	-2.679433	10.4900327478
99.677879	-2.661141	10.4900557334
99.664667	-2.642849	10.490456989
99.651455	-2.624556	10.491241108
99.638244	-2.606264	10.4923157595
99.625033	-2.587971	10.4931891029
100.463031	-3.70859	10.7538865999
100.44979	-3.69031	10.7570633231
100.436549	-3.672029	10.75987091
100.423309	-3.653748	10.7625818272
100.41007	-3.635466	10.7654484575
100.396832	-3.617185	10.7675455462
100.383593	-3.598903	10.7669345669
