99.883655	-4.089818	0.623951013827
99.857185	-4.05324	0.630507994543
99.830717	-4.016661	0.63417768983
99.804252	-3.980081	0.634029091152
99.777788	-3.9435	0.63418175936
99.751327	-3.906919	0.635543727159
99.724869	-3.870337	0.638489774565
99.698412	-3.833753	0.641515064581
99.671957	-3.79717	0.643919515782
99.645505	-3.760585	0.646130918631
99.619054	-3.724	0.64855673648
99.592606	-3.687414	0.651102640174
99.56616	-3.650827	0.654148167513
99.539715	-3.614239	0.657574770997
99.513273	-3.577651	0.657514402039
99.486833	-3.541062	0.657283420489
99.460395	-3.504473	0.657362431537
99.433958	-3.467882	0.65805231918
99.407524	-3.431291	0.658070348937
99.381091	-3.3947	0.658464959297
99.35466	-3.358107	0.663910076709
99.328232	-3.321514	0.669951598336
99.301805	-3.284921	0.673642363243
99.275379	-3.248326	0.673506225607
99.248956	-3.211731	0.673891207348
99.222534	-3.175136	0.67615982305
99.196114	-3.13854	0.679544896829
99.169696	-3.101943	0.683043360724
99.143279	-3.065346	0.684421242294
99.116865	-3.028748	0.684548863803
99.919768	-4.063464	1.27811240443
99.893297	-4.026887	1.28448249559
99.866829	-3.990308	1.28803888772
99.840363	-3.95373	1.28754728276
99.813899	-3.91715	1.28769255507
99.787437	-3.880569	1.28911014742
99.760977	-3.843988	1.29208851101
99.73452	-3.807406	1.29516286717
99.708065	-3.770823	1.29765089314
99.681611	-3.73424	1.29991957548
99.65516	-3.697655	1.30236294076
99.628711	-3.66107	1.30475497702
99.602264	-3.624485	1.30749495182
99.575819	-3.587898	1.31059243599
99.549376	-3.551311	1.31106592056
99.522935	-3.514723	1.31140013311
99.496496	-3.478134	1.31181650079
99.470059	-3.441545	1.3125928549
99.443624	-3.404955	1.31240616555
99.417191	-3.368364	1.31253288054
99.390759	-3.331772	1.31747087556
99.36433	-3.29518	1.32304999192
99.337902	-3.258588	1.32646704199
99.311476	-3.221994	1.32648658088
99.285052	-3.1854	1.3270387313
99.25863	-3.148806	1.32937561124
99.232209	-3.11221	1.33270299304
99.20579	-3.075615	1.33591741644
99.179373	-3.039018	1.33719634836
99.152957	-3.002421	1.33723654671
99.126543	-2.965823	1.3374072233
99.955879	-4.037108	1.93331597714
99.929407	-4.000532	1.93626816055
99.902938	-3.963955	1.93856435721
99.876471	-3.927377	1.94008031605
99.850007	-3.890798	1.9414963733
99.823544	-3.854219	1.9433128043
99.797084	-3.817638	1.94569243317
99.770626	-3.781057	1.94827066313
99.74417	-3.744475	1.95088897967
99.717716	-3.707893	1.95351509331
99.691264	-3.67131	1.95600139397
99.664815	-3.634725	1.95797839052
99.638367	-3.598141	1.95949762424
99.611921	-3.561555	1.96113218525
99.585478	-3.524969	1.96336315441
99.559036	-3.488382	1.96583760385
99.532596	-3.451794	1.96771181958
99.506158	-3.415206	1.96838158081
99.479722	-3.378616	1.96859247346
99.453288	-3.342027	1.96946439927
99.426856	-3.305436	1.97164206021
99.400426	-3.268845	1.97429268052
99.373998	-3.232253	1.9766426663
99.347571	-3.195661	1.97863396667
99.321146	-3.159068	1.98061894801
99.294723	-3.122474	1.98302723525
99.268302	-3.08588	1.98575401027
99.241882	-3.049285	1.9881771653
99.215464	-3.012689	1.98949426975
99.189048	-2.976093	1.98988920075
99.162633	-2.939496	1.99044986044
99.991987	-4.010751	2.58834819361
99.965515	-3.974175	2.58847314848
99.939046	-3.937599	2.58972103062
99.912578	-3.901022	2.5926375754
99.886113	-3.864445	2.59493793782
99.85965	-3.827866	2.59704027715
99.833189	-3.791287	2.59917377098
99.80673	-3.754707	2.6013582178
99.780273	-3.718126	2.60407175814
99.753819	-3.681545	2.60710753374
99.727366	-3.644962	2.61009519135
99.700916	-3.608379	2.6114925089
99.674467	-3.571795	2.611451831
99.648021	-3.535211	2.61109786347
99.621577	-3.498625	2.61550048035
99.595134	-3.462039	2.62062389459
99.568694	-3.425453	2.62481505934
99.542255	-3.388865	2.6244423879
99.515819	-3.352277	2.62436275078
99.489384	-3.315688	2.62513018768
99.462951	-3.279099	2.62562827223
99.43652	-3.242508	2.62590213464
99.410091	-3.205917	2.627142954
99.383664	-3.169326	2.6308247524
99.357238	-3.132734	2.63375705613
99.330814	-3.096141	2.63636156013
99.304392	-3.059547	2.63895291636
99.277972	-3.022953	2.64146927141
99.251553	-2.986359	2.64256805135
99.225136	-2.949763	2.64250544931
99.198721	-2.913167	2.64236773716
100.028094	-3.984392	3.24243925852
100.001621	-3.947818	3.24200688688
99.975151	-3.911243	3.24294500218
99.948683	-3.874667	3.24609225576
99.922217	-3.83809	3.24843471937
99.895753	-3.801513	3.25053303274
99.869291	-3.764934	3.25266544474
99.842832	-3.728355	3.25483054305
99.816374	-3.691776	3.25753793539
99.789919	-3.655195	3.26057117553
99.763466	-3.618614	3.26350915938
99.737015	-3.582032	3.26490215739
99.710566	-3.545449	3.26494244073
99.684119	-3.508865	3.26480560302
99.657674	-3.472281	3.26908014503
99.631231	-3.435696	3.27434073782
99.60479	-3.39911	3.27917168651
99.57835	-3.362523	3.27864540323
99.551913	-3.325936	3.27876516754
99.525478	-3.289348	3.27954977872
99.499044	-3.252759	3.2798685228
99.472613	-3.21617	3.2796914203
99.446183	-3.17958	3.28058176354
99.419755	-3.14299	3.28410063485
99.393329	-3.106398	3.2869755349
99.366904	-3.069806	3.28954479375
99.340481	-3.033214	3.29211996876
99.31406	-2.996621	3.29458944076
99.287641	-2.960027	3.29571304191
99.261223	-2.923432	3.29571166635
99.234807	-2.886837	3.29579564272
100.064198	-3.958032	3.89538592622
100.037725	-3.921459	3.8972917627
100.011254	-3.884885	3.89907695893
99.984785	-3.84831	3.90057729588
99.958318	-3.811734	3.90199050356
99.931854	-3.775158	3.9038373089
99.905392	-3.73858	3.90620714548
99.878932	-3.702002	3.9087517291
99.852474	-3.665424	3.91135672334
99.826018	-3.628844	3.9139512381
99.799564	-3.592264	3.91634951515
99.773112	-3.555682	3.91826507115
99.746662	-3.519101	3.91981601947
99.720215	-3.482518	3.92158512201
99.693769	-3.445934	3.92386738846
99.667325	-3.40935	3.92645017112
99.640883	-3.372765	3.92888389439
99.614444	-3.33618	3.93064032836
99.588006	-3.299594	3.93208836481
99.56157	-3.263007	3.93342555187
99.535135	-3.226419	3.93454085448
99.508703	-3.189831	3.93562495122
99.482273	-3.153242	3.93689348456
99.455844	-3.116652	3.93846127495
99.429417	-3.080062	3.94025245753
99.402992	-3.04347	3.94256579394
99.376568	-3.006879	3.94530419805
99.350147	-2.970287	3.94778252619
99.323727	-2.933694	3.94904339629
99.297308	-2.8971	3.94937279203
99.270892	-2.860506	3.95005050866
100.100301	-3.93167	4.54829645246
100.073827	-3.895098	4.55285709347
100.047355	-3.858525	4.55566007245
100.020885	-3.821951	4.5552065563
99.994418	-3.785377	4.55521871454
99.967953	-3.748801	4.55675885009
99.94149	-3.712225	4.55967458532
99.915029	-3.675648	4.56262793846
99.888571	-3.63907	4.56516822596
99.862114	-3.602492	4.56738039798
99.83566	-3.565912	4.56961340595
99.809207	-3.529332	4.57189238168
99.782757	-3.492751	4.57455499594
99.756308	-3.456169	4.57778999044
99.729862	-3.419587	4.57837244055
99.703418	-3.383004	4.57850471645
99.676975	-3.34642	4.57929855826
99.650535	-3.309835	4.58266964648
99.624096	-3.27325	4.58533365954
99.597659	-3.236664	4.58748318427
99.571225	-3.200077	4.58925627293
99.544792	-3.16349	4.59158669324
99.51836	-3.126902	4.5929406736
99.491931	-3.090313	4.59286037886
99.465504	-3.053723	4.5931934927
99.439078	-3.017133	4.59524941226
99.412654	-2.980542	4.59866970266
99.386231	-2.943951	4.60208486694
99.359811	-2.907359	4.60309464152
99.333392	-2.870766	4.60299141471
99.306974	-2.834173	4.6029009091
100.136401	-3.905307	5.20198122937
100.109926	-3.868736	5.20691257166
100.083454	-3.832164	5.21003038914
100.056984	-3.795592	5.20891696411
100.030516	-3.759018	5.20883083942
100.00405	-3.722444	5.21033793765
99.977586	-3.685868	5.21318827093
99.951125	-3.649292	5.21615681699
99.924666	-3.612715	5.21863715512
99.898209	-3.576138	5.22079962661
99.871753	-3.539559	5.22298751188
99.8453	-3.50298	5.22525985078
99.818849	-3.4664	5.22790223486
99.7924	-3.42982	5.23110208586
99.765953	-3.393238	5.23165460691
99.739508	-3.356656	5.23178231557
99.713065	-3.320073	5.23264765842
99.686624	-3.283489	5.23600020957
99.660185	-3.246905	5.23875528951
99.633747	-3.21032	5.2410964809
99.607312	-3.173734	5.24327910275
99.580878	-3.137147	5.24586072655
99.554446	-3.10056	5.24722854953
99.528016	-3.063972	5.24697606811
99.501588	-3.027384	5.24682773255
99.475162	-2.990795	5.24861447007
99.448737	-2.954205	5.25191296666
99.422314	-2.917614	5.25511082715
99.395893	-2.881023	5.25660386869
99.369473	-2.844431	5.25710967994
99.343055	-2.807839	5.25749975601
100.172499	-3.878943	5.85632249215
100.146024	-3.842373	5.85858432967
100.119551	-3.805802	5.86033949344
100.09308	-3.76923	5.8614125276
100.066611	-3.732658	5.86257303684
100.040145	-3.696084	5.8643816958
100.013681	-3.65951	5.86675220855
99.987219	-3.622935	5.86922457154
99.960759	-3.586359	5.87167951151
99.934301	-3.549783	5.87415873123
99.907845	-3.513205	5.87650664397
99.881391	-3.476627	5.87832697127
99.85494	-3.440048	5.87988645081
99.82849	-3.403468	5.88160183755
99.802043	-3.366888	5.88377532406
99.775597	-3.330306	5.88630604362
99.749153	-3.293724	5.888710403
99.722711	-3.257142	5.89059155696
99.696271	-3.220558	5.8922687703
99.669833	-3.183974	5.8942036822
99.643397	-3.147389	5.89666400812
99.616963	-3.110804	5.89915475594
99.590531	-3.074217	5.90064401726
99.5641	-3.03763	5.90093942228
99.537671	-3.001043	5.90120471907
99.511244	-2.964455	5.9026347943
99.484818	-2.927866	5.90512658612
99.458395	-2.891276	5.90768180846
99.431973	-2.854686	5.90983488792
99.405553	-2.818095	5.91178222995
99.379134	-2.781503	5.91375869536
100.208595	-3.852578	6.5105655083
100.182119	-3.816009	6.5104749778
100.155646	-3.779439	6.51123650735
100.129174	-3.742868	6.51387112913
100.102705	-3.706296	6.51596696982
100.076238	-3.669724	6.51805894828
100.049773	-3.633151	6.52039564074
100.02331	-3.596577	6.52234886261
99.99685	-3.560002	6.52465627524
99.970391	-3.523426	6.52752041545
99.943935	-3.48685	6.53051566647
99.917481	-3.450272	6.53149747549
99.891028	-3.413694	6.5316491159
99.864578	-3.377116	6.53166702781
99.83813	-3.340536	6.53572077683
99.811684	-3.303956	6.54104454249
99.785239	-3.267375	6.54542018181
99.758797	-3.230793	6.54533505509
99.732356	-3.19421	6.54558832428
99.705918	-3.157627	6.5467443144
99.679481	-3.121043	6.54988235341
99.653046	-3.084459	6.55316401131
99.626613	-3.047873	6.55502554931
99.600182	-3.011287	6.55487774124
99.573752	-2.974701	6.55456748079
99.547324	-2.938113	6.555865345
99.520898	-2.901525	6.55851417166
99.494474	-2.864936	6.56074426203
99.468051	-2.828347	6.56322683225
99.44163	-2.791757	6.56624167992
99.415211	-2.755167	6.56992537228
100.244689	-3.826211	7.16457352814
100.218212	-3.789643	7.16355319744
100.191738	-3.753074	7.16384236003
100.165266	-3.716504	7.16746132608
100.138796	-3.679934	7.17023802628
100.112329	-3.643362	7.17256136062
100.085863	-3.60679	7.17457469787
100.0594	-3.570217	7.17597311206
100.032939	-3.533643	7.17779815253
100.00648	-3.497068	7.18034084821
99.980023	-3.460493	7.18333411702
99.953568	-3.423917	7.18416767838
99.927115	-3.38734	7.18448338832
99.900664	-3.350762	7.18461010106
99.874215	-3.314183	7.18894346765
99.847768	-3.277604	7.19439383461
99.821323	-3.241024	7.19881225055
99.79488	-3.204443	7.1986119813
99.768439	-3.167861	7.19887170064
99.742	-3.131279	7.20011615519
99.715563	-3.094696	7.20320240937
99.689127	-3.058112	7.20650333006
99.662693	-3.021528	7.20856652832
99.636261	-2.984943	7.20890118558
99.609831	-2.948357	7.20882408608
99.583403	-2.911771	7.21011272277
99.556976	-2.875183	7.2125116871
99.530551	-2.838596	7.21438243568
99.504128	-2.802007	7.21656798909
99.477706	-2.765418	7.21937123392
99.451286	-2.728828	7.22292188775
100.280781	-3.799842	7.81845031563
100.254304	-3.763275	7.81800708664
100.227829	-3.726708	7.81913518003
100.201356	-3.690139	7.82232033364
100.174886	-3.653569	7.82587247168
100.148418	-3.616999	7.8283300346
100.121952	-3.580428	7.82943986325
100.095488	-3.543856	7.83021429744
100.069026	-3.507283	7.83119235464
100.042566	-3.470709	7.83242112285
100.016109	-3.434135	7.83395568898
99.989653	-3.397559	7.8360746549
99.9632	-3.360983	7.83858189358
99.936748	-3.324407	7.8410475466
99.910299	-3.287829	7.84363635191
99.883851	-3.251251	7.84631198011
99.857406	-3.214671	7.84863009066
99.830962	-3.178091	7.85033492606
99.80452	-3.141511	7.85200019996
99.77808	-3.10493	7.85403662355
99.751642	-3.068347	7.85656334142
99.725206	-3.031765	7.85919274487
99.698772	-2.995181	7.8614242271
99.672339	-2.958597	7.86316863291
99.645909	-2.922012	7.86472461041
99.61948	-2.885426	7.86599316956
99.593052	-2.84884	7.8670961699
99.566627	-2.812253	7.86826361683
99.540203	-2.775666	7.86966813247
99.513781	-2.739078	7.87118996263
99.48736	-2.702489	7.87278864833
100.316871	-3.773473	8.47239864121
100.290393	-3.736907	8.47141239983
100.263918	-3.70034	8.47271432034
100.237444	-3.663773	8.47719093847
100.210973	-3.627204	8.48245654735
100.184505	-3.590635	8.48530536098
100.158038	-3.554064	8.48440505081
100.131574	-3.517493	8.48429132575
100.105111	-3.480921	8.48453849891
100.078651	-3.444349	8.48450108366
100.052193	-3.407775	8.48414629583
100.025737	-3.371201	8.48790286542
99.999282	-3.334626	8.4929989758
99.97283	-3.29805	8.49753969874
99.94638	-3.261473	8.49824324386
99.919932	-3.224896	8.49844310962
99.893486	-3.188318	8.49900727567
99.867042	-3.151739	8.5019663355
99.840599	-3.115159	8.50481287847
99.814159	-3.078579	8.50744283905
99.78772	-3.041997	8.50977610945
99.761284	-3.005416	8.51218735436
99.734849	-2.968833	8.51462649361
99.708416	-2.93225	8.51737425267
99.681984	-2.895666	8.52079535317
99.655555	-2.859081	8.52177553221
99.629127	-2.822496	8.52162642982
99.602701	-2.78591	8.52190985769
99.576276	-2.749323	8.5228393429
99.549853	-2.712736	8.52318607472
99.523432	-2.676148	8.52232720982
100.352959	-3.747102	9.12596654376
100.32648	-3.710537	9.12546868447
100.300004	-3.673971	9.1270444941
100.273531	-3.637405	9.13155422664
100.247059	-3.600837	9.13653441436
100.22059	-3.564269	9.13913196145
100.194122	-3.5277	9.1381734677
100.167657	-3.49113	9.13806283947
100.141194	-3.454559	9.13825211103
100.114733	-3.417987	9.13800498924
100.088275	-3.381414	9.13697124855
100.061818	-3.344841	9.14150290426
100.035363	-3.308267	9.14713350024
100.008911	-3.271692	9.15152123342
99.98246	-3.235116	9.15202564461
99.956011	-3.19854	9.15150782609
99.929565	-3.161963	9.15144817995
99.90312	-3.125385	9.1544960807
99.876677	-3.088806	9.15755911988
99.850236	-3.052226	9.16035512217
99.823797	-3.015646	9.16285775706
99.797359	-2.979065	9.16531307643
99.770924	-2.942484	9.16777554483
99.74449	-2.905901	9.17054236387
99.718058	-2.869318	9.1739985295
99.691628	-2.832734	9.17531549572
99.665199	-2.79615	9.17571531104
99.638773	-2.759565	9.17649853185
99.612348	-2.722979	9.17748461871
99.585924	-2.686393	9.17768884046
99.559502	-2.649806	9.17711805455
100.389044	-3.72073	9.77899617996
100.362566	-3.684166	9.78095944778
100.336089	-3.647601	9.78317273901
100.309615	-3.611036	9.78553225183
100.283143	-3.574469	9.78783052835
100.256673	-3.537902	9.78954784376
100.230205	-3.501334	9.79066431281
100.203739	-3.464765	9.79161013031
100.177276	-3.428195	9.79243242258
100.150814	-3.391624	9.79316381346
100.124355	-3.355052	9.79445836721
100.097898	-3.31848	9.7974751321
100.071442	-3.281907	9.80140212191
100.044989	-3.245333	9.80449121181
100.018538	-3.208758	9.80549301365
99.992089	-3.172183	9.80544197677
99.965641	-3.135606	9.80595454799
99.939196	-3.099029	9.80787355342
99.912752	-3.062452	9.81040826095
99.886311	-3.025873	9.81312415268
99.859871	-2.989294	9.81590787743
99.833433	-2.952714	9.81860240653
99.806997	-2.916133	9.82088679693
99.780563	-2.879552	9.82268469573
99.75413	-2.842969	9.82446343616
99.727699	-2.806387	9.82668470409
99.70127	-2.769803	9.82946245371
99.674843	-2.733219	9.83211618963
99.648417	-2.696634	9.83359033239
99.621993	-2.660048	9.83429738758
99.595571	-2.623462	9.83512008668
100.425128	-3.694357	10.4319127328
100.398649	-3.657794	10.4364367206
100.372172	-3.62123	10.4392862754
100.345697	-3.584665	10.4394348862
100.319224	-3.5481	10.4393991187
100.292754	-3.511533	10.4403619194
100.266285	-3.474966	10.4430774229
100.239819	-3.438398	10.4452033494
100.213355	-3.401829	10.4467147112
100.186893	-3.36526	10.4482117166
100.160433	-3.328689	10.4503538527
100.133975	-3.292118	10.4528460248
100.107519	-3.255545	10.4561437597
100.081066	-3.218972	10.459556215
100.054614	-3.182399	10.4595819966
100.028164	-3.145824	10.4590242393
100.001716	-3.109249	10.4590965798
99.97527	-3.072673	10.4610906943
99.948826	-3.036096	10.4633597885
99.922384	-2.999518	10.465909452
99.895944	-2.96294	10.4690550846
99.869505	-2.926361	10.4722082823
99.843068	-2.889781	10.4744252295
99.816634	-2.8532	10.4747776741
99.7902	-2.816619	10.4744986203
99.763769	-2.780037	10.4776234227
99.73734	-2.743455	10.4831254481
99.710912	-2.706871	10.4887669335
99.684485	-2.670287	10.4900007019
99.658061	-2.633703	10.4908003823
99.631638	-2.597117	10.4928349792
100.46121	-3.667982	11.0854230673
100.43473	-3.63142	11.0907607953
100.408253	-3.594857	11.0937246688
100.381777	-3.558294	11.0931433749
100.355304	-3.521729	11.0925281599
100.328833	-3.485164	11.0932558207
100.302364	-3.448598	11.0962320239
100.275897	-3.412031	11.0987318631
100.249433	-3.375463	11.1006440914
100.22297	-3.338894	11.102522785
100.19651	-3.302324	11.1048697417
100.170051	-3.265754	11.1071325749
100.143595	-3.229183	11.1099618635
100.11714	-3.192611	11.1129082655
100.090688	-3.156038	11.1130126671
100.064238	-3.119464	11.1125886463
100.037789	-3.08289	11.112604024
100.011343	-3.046315	11.1146594777
99.984898	-3.009739	11.1167587821
99.958455	-2.973162	11.11913956
99.932014	-2.936585	11.1222242023
99.905575	-2.900007	11.125308333
99.879138	-2.863428	11.1274104932
99.852703	-2.826848	11.1276159198
99.826269	-2.790268	11.1272756481
99.799837	-2.753687	11.1305809509
99.773407	-2.717105	11.1363127843
99.746979	-2.680523	11.1416243252
99.720552	-2.64394	11.1439398187
99.694127	-2.607356	11.145645323
