99.640151	-3.638752	-3.01941407684
99.626928	-3.620459	-3.62985842474
99.613704	-3.602166	-4.25466204622
99.600482	-3.583873	-4.73980648051
99.58726	-3.56558	-4.85273937821
99.574038	-3.547287	-4.57935575141
99.560817	-3.528993	-4.13803720573
99.547596	-3.510699	-3.69652837655
99.534376	-3.492405	-3.32593946353
99.521156	-3.474111	-3.09940860036
99.507937	-3.455817	-3.09878607442
99.494718	-3.437523	-3.3036863929
99.4815	-3.419228	-3.63041386227
99.468282	-3.400933	-4.01543491043
99.455065	-3.382638	-4.36071117441
99.441848	-3.364343	-4.38814787322
99.428632	-3.346048	-3.75912533402
99.415416	-3.327752	-2.56705335746
99.4022	-3.309457	-1.1633548746
99.388985	-3.291161	0.234275525968
99.375771	-3.272865	1.45156603458
99.362557	-3.254569	2.22993374556
99.349343	-3.236272	2.50080295329
99.33613	-3.217976	2.51253091373
99.322917	-3.199679	2.49105903136
99.309705	-3.181383	2.47193772566
99.296493	-3.163086	2.30104778246
99.283282	-3.144789	1.80195931103
99.270071	-3.126491	1.05952497873
99.256861	-3.108194	0.258514524684
99.24365	-3.089896	-0.518675153738
99.230441	-3.071599	-1.22740943154
99.217232	-3.053301	-1.75245528348
99.204023	-3.035003	-1.98374461778
99.190814	-3.016705	-1.99893824526
99.177606	-2.998406	-1.95080171932
99.164399	-2.980108	-1.90908670759
99.151192	-2.961809	-1.87723748292
99.137985	-2.94351	-1.82923079169
99.975734	-4.064539	-1.42418837184
99.962497	-4.046252	-1.31977167269
99.949261	-4.027964	-1.17761284007
99.936025	-4.009676	-1.01678665198
99.92279	-3.991387	-0.844469691816
99.909555	-3.973099	-0.664624039316
99.896321	-3.95481	-0.478904387627
99.883088	-3.936521	-0.288076731027
99.869855	-3.918232	-0.0996653451872
99.856623	-3.899943	0.0611620912047
99.843391	-3.881653	0.142281111403
99.83016	-3.863364	0.0795396608037
99.816929	-3.845074	-0.149412045416
99.803699	-3.826783	-0.496242567471
99.790469	-3.808493	-0.886080155829
99.77724	-3.790203	-1.25638496482
99.764012	-3.771912	-1.55495663049
99.750784	-3.753621	-1.75068063967
99.737556	-3.73533	-1.85402267251
99.724329	-3.717039	-1.90530700215
99.711103	-3.698747	-1.94706322525
99.697877	-3.680455	-2.02069785894
99.684652	-3.662164	-2.17190177439
99.671427	-3.643872	-2.4277475393
99.658202	-3.625579	-2.76996388056
99.644979	-3.607287	-3.14681726824
99.631755	-3.588994	-3.49263384643
99.618532	-3.570702	-3.72833829941
99.60531	-3.552409	-3.78836633616
99.592088	-3.534115	-3.67357071552
99.578867	-3.515822	-3.44261570972
99.565646	-3.497529	-3.16652324589
99.552426	-3.479235	-2.91087407957
99.539206	-3.460941	-2.74544959492
99.525987	-3.442647	-2.72214541321
99.512768	-3.424353	-2.83133722647
99.499549	-3.406058	-3.0088852015
99.486331	-3.387764	-3.17458990454
99.473114	-3.369469	-3.23391395742
99.459897	-3.351174	-3.06259752473
99.44668	-3.332879	-2.56594592471
99.433464	-3.314584	-1.7718619348
99.420249	-3.296289	-0.810303910162
99.407033	-3.277993	0.169785768863
99.393819	-3.259697	1.01640085078
99.380605	-3.241401	1.59266385955
99.367391	-3.223105	1.85978755001
99.354177	-3.204809	1.90010210332
99.340965	-3.186513	1.81855643178
99.327752	-3.168216	1.659068556
99.31454	-3.149919	1.40933717184
99.301329	-3.131622	1.05790357585
99.288117	-3.113325	0.634516035576
99.274907	-3.095028	0.186624891896
99.261696	-3.076731	-0.244614331703
99.248487	-3.058433	-0.624054482147
99.235277	-3.040136	-0.922229192751
99.222068	-3.021838	-1.13161455241
99.20886	-3.00354	-1.26756312087
99.195652	-2.985242	-1.35085620324
99.182444	-2.966944	-1.39762501846
99.169237	-2.948645	-1.41745234095
99.15603	-2.930347	-1.41279718108
99.993789	-4.051361	-0.45536492466
99.980552	-4.033073	-0.523200777487
99.967315	-4.014786	-0.564994794422
99.954079	-3.996498	-0.547225478432
99.940844	-3.97821	-0.473664300893
99.927609	-3.959921	-0.355087846505
99.914375	-3.941633	-0.198393866073
99.901142	-3.923344	-0.00588397419716
99.887909	-3.905055	0.218527847389
99.874676	-3.886766	0.453319690538
99.861444	-3.868477	0.621625748145
99.848213	-3.850187	0.577158156264
99.834982	-3.831898	0.249749317965
99.821752	-3.813608	-0.239954326913
99.808522	-3.795318	-0.758931256386
99.795293	-3.777028	-1.24017186116
99.782064	-3.758737	-1.61704559608
99.768836	-3.740446	-1.82909482637
99.755608	-3.722156	-1.90592457915
99.742381	-3.703865	-1.93131378625
99.729154	-3.685573	-1.95641899963
99.715928	-3.667282	-2.00820609388
99.702703	-3.64899	-2.11123069552
99.689478	-3.630698	-2.27872343851
99.676253	-3.612406	-2.48647116306
99.663029	-3.594114	-2.68221141105
99.649806	-3.575822	-2.81580794136
99.636583	-3.557529	-2.8687392454
99.62336	-3.539237	-2.87714844219
99.610138	-3.520944	-2.86035452548
99.596917	-3.502651	-2.77330087459
99.583696	-3.484357	-2.60639736523
99.570475	-3.466064	-2.40381442968
99.557255	-3.44777	-2.24451745982
99.544036	-3.429477	-2.20579936014
99.530816	-3.411183	-2.27821573062
99.517598	-3.392888	-2.36804888066
99.50438	-3.374594	-2.38545829067
99.491162	-3.3563	-2.27119482243
99.477945	-3.338005	-2.01348948287
99.464728	-3.31971	-1.63484404714
99.451512	-3.301415	-1.12040467888
99.438296	-3.28312	-0.481565862619
99.425081	-3.264825	0.198279043105
99.411866	-3.246529	0.802815218378
99.398652	-3.228233	1.21753923348
99.385438	-3.209938	1.38818269154
99.372224	-3.191642	1.3538115812
99.359011	-3.173345	1.17462958711
99.345799	-3.155049	0.895140822262
99.332586	-3.136753	0.591857171946
99.319375	-3.118456	0.366678067605
99.306163	-3.100159	0.220828822782
99.292952	-3.081862	0.0917847516042
99.279742	-3.063565	-0.0220667032604
99.266532	-3.045268	-0.100339251976
99.253322	-3.02697	-0.182635929354
99.240113	-3.008673	-0.357042173841
99.226905	-2.990375	-0.593402786404
99.213696	-2.972077	-0.78887478085
99.200488	-2.953779	-0.912922827125
99.187281	-2.935481	-0.981375066882
99.174074	-2.917183	-1.02025204277
100.011843	-4.038181	0.495819089939
99.998606	-4.019894	0.202056243375
99.985369	-4.001607	-0.025947638868
99.972133	-3.983319	-0.135908816943
99.958898	-3.965031	-0.148757346198
99.945663	-3.946743	-0.0869935440923
99.932429	-3.928455	0.0379550035113
99.919195	-3.910167	0.227783994962
99.905962	-3.891878	0.492170260649
99.892729	-3.873589	0.841093449192
99.879497	-3.8553	1.21681718776
99.866265	-3.837011	1.26495594482
99.853034	-3.818722	0.712695861145
99.839804	-3.800432	0.0014244671356
99.826574	-3.782142	-0.670640597067
99.813344	-3.763852	-1.29791458517
99.800116	-3.745562	-1.80660775727
99.786887	-3.727272	-1.99665209419
99.773659	-3.708981	-1.97690802243
99.760432	-3.69069	-1.94672781835
99.747205	-3.672399	-1.93822260889
99.733979	-3.654108	-1.94956858056
99.720753	-3.635817	-1.99153992524
99.707528	-3.617525	-2.09563624981
99.694304	-3.599233	-2.21742950637
99.681079	-3.580941	-2.28335664809
99.667856	-3.562649	-2.24411517881
99.654632	-3.544357	-2.09718994471
99.64141	-3.526064	-2.03676656798
99.628188	-3.507772	-2.15545165558
99.614966	-3.489479	-2.19085715599
99.601745	-3.471186	-2.08503950244
99.588524	-3.452893	-1.8701835271
99.575304	-3.434599	-1.64121440163
99.562084	-3.416306	-1.59757886584
99.548865	-3.398012	-1.71732045626
99.535646	-3.379718	-1.78715835433
99.522428	-3.361424	-1.71750247503
99.50921	-3.34313	-1.46886250655
99.495993	-3.324835	-1.11440601126
99.482776	-3.306541	-0.886602058829
99.469559	-3.288246	-0.617695025538
99.456343	-3.269951	-0.211034411059
99.443128	-3.251656	0.271354085346
99.429913	-3.233361	0.73852694104
99.416698	-3.215065	1.04523301997
99.403484	-3.19677	1.07351383677
99.39027	-3.178474	0.918408201564
99.377057	-3.160178	0.623963077074
99.363844	-3.141882	0.191699934489
99.350632	-3.123586	-0.251107659383
99.33742	-3.105289	-0.337129371472
99.324209	-3.086993	-0.166572394433
99.310998	-3.068696	-0.0129095718521
99.297787	-3.050399	0.140296255294
99.284577	-3.032102	0.358025344895
99.271367	-3.013805	0.564440481994
99.258158	-2.995507	0.384978531525
99.244949	-2.97721	-0.0183222763103
99.23174	-2.958912	-0.317341463804
99.218532	-2.940614	-0.494350337267
99.205325	-2.922316	-0.585673199013
99.192118	-2.904018	-0.651640896237
100.029897	-4.025002	1.30703326827
100.016659	-4.006715	0.737410017128
100.003423	-3.988428	0.372722018849
99.990187	-3.97014	0.175945709628
99.976951	-3.951853	0.100438583087
99.963716	-3.933565	0.115301134913
99.950481	-3.915277	0.203229682648
99.937247	-3.896989	0.373832169561
99.924014	-3.878701	0.645155824564
99.910781	-3.860412	1.05809155655
99.897549	-3.842123	1.65728303638
99.884317	-3.823834	2.00926228877
99.871086	-3.805545	1.00942460015
99.857855	-3.787256	0.136898348286
99.844625	-3.768966	-0.614685312015
99.831396	-3.750676	-1.33278504397
99.818167	-3.732386	-2.0578084923
99.804938	-3.714096	-2.1198391359
99.79171	-3.695806	-1.99147391679
99.778483	-3.677515	-1.92605984196
99.765256	-3.659225	-1.89929305632
99.752029	-3.640934	-1.88394530525
99.738804	-3.622643	-1.8632412462
99.725578	-3.604351	-1.94099212149
99.712353	-3.58606	-2.01175462472
99.699129	-3.567768	-1.99880515018
99.685905	-3.549476	-1.85767182192
99.672682	-3.531184	-1.54752022175
99.659459	-3.512892	-1.38893439295
99.646237	-3.494599	-1.6704089953
99.633015	-3.476307	-1.76959093378
99.619793	-3.458014	-1.68774802237
99.606572	-3.439721	-1.44234833234
99.593352	-3.421428	-1.05510340183
99.580132	-3.403135	-1.04093586046
99.566913	-3.384841	-1.27163523897
99.553694	-3.366547	-1.34632624066
99.540475	-3.348254	-1.24222690587
99.527257	-3.32996	-0.939565573593
99.51404	-3.311665	-0.474151002666
99.500823	-3.293371	-0.417223117084
99.487606	-3.275076	-0.29986291203
99.47439	-3.256782	-0.0352896885733
99.461174	-3.238487	0.318899609489
99.447959	-3.220192	0.707313505622
99.434744	-3.201897	0.998511385647
99.42153	-3.183601	0.842404465895
99.408316	-3.165306	0.59493253568
99.395103	-3.14701	0.232574137277
99.38189	-3.128714	-0.29506955126
99.368677	-3.110418	-0.991757162455
99.355465	-3.092122	-0.861924572669
99.342254	-3.073826	-0.42922659853
99.329043	-3.055529	-0.104638801429
99.315832	-3.037232	0.201429843013
99.302621	-3.018936	0.595222894371
99.289411	-3.000639	1.11378222887
99.276202	-2.982342	0.849804452834
99.262993	-2.964044	0.339254434232
99.249784	-2.945747	0.00813211709786
99.236576	-2.927449	-0.180384634632
99.223368	-2.909151	-0.270763193258
99.210161	-2.890854	-0.338865268062
100.04795	-4.011822	1.38257635628
100.034713	-3.993535	0.936525701907
100.021476	-3.975248	0.583950675692
100.008239	-3.956961	0.365454194531
99.995004	-3.938674	0.255498021133
99.981768	-3.920386	0.231164580727
99.968534	-3.902099	0.281247154025
99.9553	-3.883811	0.409597537111
99.942066	-3.865523	0.628407511472
99.928833	-3.847234	0.956147245849
99.915601	-3.828946	1.35569292614
99.902369	-3.810657	1.41109889841
99.889137	-3.792368	0.816748251894
99.875906	-3.774079	0.0885351415237
99.862676	-3.75579	-0.581014087316
99.849446	-3.7375	-1.20881255295
99.836217	-3.719211	-1.7310658194
99.822989	-3.700921	-1.90485600161
99.80976	-3.682631	-1.87962885188
99.796533	-3.66434	-1.85350580532
99.783306	-3.64605	-1.84704035736
99.770079	-3.627759	-1.84529060476
99.756853	-3.609468	-1.8474638232
99.743628	-3.591177	-1.87705863721
99.730403	-3.572886	-1.89521621815
99.717178	-3.554594	-1.84854208868
99.703954	-3.536303	-1.70927430738
99.69073	-3.518011	-1.49784538694
99.677507	-3.499719	-1.41022007124
99.664285	-3.481427	-1.50171185508
99.651063	-3.463134	-1.54899693154
99.637841	-3.444842	-1.46893601906
99.62462	-3.426549	-1.26101551845
99.6114	-3.408256	-0.990139770176
99.59818	-3.389963	-0.941237009844
99.58496	-3.37167	-1.05804252652
99.571741	-3.353376	-1.0895904286
99.558522	-3.335083	-0.983887697776
99.545304	-3.316789	-0.747875252717
99.532087	-3.298495	-0.477770674173
99.518869	-3.280201	-0.317718634754
99.505653	-3.261907	-0.177007409828
99.492436	-3.243612	0.0324756506879
99.47922	-3.225318	0.29591057868
99.466005	-3.207023	0.560891747241
99.45279	-3.188728	0.697750009546
99.439576	-3.170433	0.601135575321
99.426362	-3.152137	0.365634859213
99.413148	-3.133842	0.0306657919554
99.399935	-3.115546	-0.402044917728
99.386722	-3.09725	-0.79991066235
99.37351	-3.078954	-0.778639799536
99.360298	-3.060658	-0.476584301654
99.347087	-3.042362	-0.164581825619
99.333876	-3.024066	0.144908980318
99.320665	-3.005769	0.486615181972
99.307455	-2.987472	0.767010786185
99.294246	-2.969175	0.694691850955
99.281036	-2.950878	0.408872525877
99.267828	-2.932581	0.169233683522
99.254619	-2.914284	0.0170860336611
99.241411	-2.895986	-0.0747000195114
99.228204	-2.877689	-0.15830773016
100.066003	-3.998642	1.12986663739
100.052765	-3.980355	0.889530387061
100.039528	-3.962069	0.636080300004
100.026292	-3.943782	0.44261989425
100.013056	-3.925495	0.320846486343
99.99982	-3.907207	0.266588854577
99.986585	-3.88892	0.275254613688
99.973351	-3.870632	0.344184678547
99.960117	-3.852345	0.470622007339
99.946884	-3.834056	0.639943923074
99.933652	-3.815768	0.778896263118
99.92042	-3.79748	0.716843462388
99.907188	-3.779191	0.382130794363
99.893957	-3.760902	-0.0902992690273
99.880727	-3.742613	-0.579290438306
99.867497	-3.724324	-1.03581491751
99.854267	-3.706034	-1.39894977052
99.841039	-3.687745	-1.60566797727
99.82781	-3.669455	-1.69547934435
99.814582	-3.651165	-1.74533956158
99.801355	-3.632875	-1.78717937695
99.788128	-3.614584	-1.82152876129
99.774902	-3.596293	-1.84587309444
99.761676	-3.578003	-1.85948271977
99.748451	-3.559712	-1.84972045036
99.735227	-3.54142	-1.79933284428
99.722002	-3.523129	-1.70331249857
99.708779	-3.504837	-1.59007108277
99.695555	-3.486546	-1.52223231271
99.682333	-3.468254	-1.50796650728
99.669111	-3.449962	-1.48323501708
99.655889	-3.431669	-1.40047243449
99.642668	-3.413377	-1.25829070114
99.629447	-3.395084	-1.10911557083
99.616227	-3.376791	-1.03525529229
99.603007	-3.358498	-1.02200985947
99.589788	-3.340205	-0.986441296795
99.576569	-3.321912	-0.883563767891
99.563351	-3.303618	-0.716124746152
99.550133	-3.285324	-0.525654567105
99.536915	-3.267031	-0.350052893597
99.523698	-3.248736	-0.174750971235
99.510482	-3.230442	0.0228676978798
99.497266	-3.212148	0.231022086877
99.48405	-3.193853	0.404215796638
99.470835	-3.175558	0.474168512629
99.457621	-3.157264	0.403894390059
99.444407	-3.138968	0.219310809567
99.431193	-3.120673	-0.0401359343188
99.417979	-3.102378	-0.32810956338
99.404767	-3.084082	-0.540504282859
99.391554	-3.065787	-0.560125734046
99.378342	-3.047491	-0.414596019349
99.365131	-3.029195	-0.203918333768
99.35192	-3.010898	0.0239651671767
99.338709	-2.992602	0.246686018195
99.325499	-2.974305	0.401067197348
99.312289	-2.956009	0.41383625366
99.299079	-2.937712	0.321239049472
99.28587	-2.919415	0.214034882334
99.272662	-2.901118	0.13193921156
99.259454	-2.882821	0.0679955105636
99.246246	-2.864523	-0.00147982537417
100.084055	-3.985461	0.9273692764
100.070817	-3.967175	0.781074696224
100.05758	-3.948888	0.603755457732
100.044343	-3.930602	0.440835518537
100.031107	-3.912315	0.314884514236
100.017872	-3.894028	0.235363849229
100.004637	-3.875741	0.202926658528
99.991402	-3.857454	0.209362790893
99.978168	-3.839166	0.240077938527
99.964935	-3.820878	0.272593574291
99.951702	-3.80259	0.267943943882
99.93847	-3.784302	0.176249750723
99.925238	-3.766013	-0.0225316029354
99.912007	-3.747725	-0.300270861795
99.898777	-3.729436	-0.611077913445
99.885546	-3.711147	-0.91498539563
99.872317	-3.692858	-1.17616930731
99.859088	-3.674568	-1.37363072784
99.845859	-3.656279	-1.51720348231
99.832631	-3.637989	-1.63093457275
99.819404	-3.619699	-1.72878111384
99.806177	-3.601409	-1.80724228298
99.792951	-3.583118	-1.85417180117
99.779725	-3.564828	-1.86409485044
99.766499	-3.546537	-1.84319438761
99.753275	-3.528246	-1.80021018384
99.74005	-3.509955	-1.74204884289
99.726826	-3.491664	-1.67840909244
99.713603	-3.473372	-1.61885394373
99.70038	-3.45508	-1.56138512421
99.687158	-3.436789	-1.49549593727
99.673936	-3.418496	-1.41317995116
99.660715	-3.400204	-1.3154566784
99.647494	-3.381912	-1.21481981991
99.634273	-3.363619	-1.12647179497
99.621053	-3.345326	-1.04945750562
99.607834	-3.327033	-0.967943792582
99.594615	-3.30874	-0.866814733221
99.581396	-3.290447	-0.740496502736
99.568178	-3.272153	-0.590091498654
99.554961	-3.25386	-0.416686155436
99.541744	-3.235566	-0.22308478566
99.528527	-3.217272	-0.0195958685937
99.515311	-3.198978	0.17215132547
99.502095	-3.180683	0.313657548478
99.48888	-3.162389	0.360168705961
99.475665	-3.144094	0.294416906042
99.462451	-3.125799	0.140850066574
99.449237	-3.107504	-0.0592070463511
99.436024	-3.089209	-0.258845523339
99.422811	-3.070914	-0.398343455166
99.409598	-3.052618	-0.431566057942
99.396386	-3.034323	-0.365647111344
99.383174	-3.016027	-0.244642569482
99.369963	-2.997731	-0.10759972002
99.356752	-2.979435	0.0208146185386
99.343542	-2.961138	0.120736060792
99.330331	-2.942842	0.179894306768
99.317122	-2.924545	0.203102854569
99.303913	-2.906249	0.208796885238
99.290704	-2.887952	0.209447722608
99.277496	-2.869655	0.198680921666
99.264288	-2.851357	0.15757286243
100.102107	-3.97228	0.785868200755
100.088869	-3.953994	0.681699973893
100.075631	-3.935708	0.544030277535
100.062394	-3.917422	0.395830159199
100.049158	-3.899135	0.258838538254
100.035922	-3.880848	0.153411378232
100.022687	-3.862562	0.0867069788349
100.009453	-3.844274	0.0413073731052
99.996219	-3.825987	-0.00895027560377
99.982985	-3.807699	-0.0839130634424
99.969752	-3.789412	-0.183043768451
99.95652	-3.771124	-0.278750090353
99.943288	-3.752836	-0.370457400405
99.930057	-3.734547	-0.495467543988
99.916826	-3.716259	-0.658172718801
99.903596	-3.69797	-0.837320183531
99.890366	-3.679681	-1.01601050141
99.877137	-3.661392	-1.19062352696
99.863908	-3.643102	-1.36019334262
99.85068	-3.624813	-1.52328267315
99.837452	-3.606523	-1.68016859074
99.824225	-3.588233	-1.81519642899
99.810999	-3.569943	-1.88950148126
99.797773	-3.551653	-1.88788172545
99.784547	-3.533362	-1.84911145191
99.771322	-3.515071	-1.81089050048
99.758098	-3.496781	-1.78524081538
99.744874	-3.478489	-1.76328368001
99.73165	-3.460198	-1.71505101032
99.718427	-3.441907	-1.62682615749
99.705205	-3.423615	-1.52965495202
99.691983	-3.405323	-1.44974949735
99.678761	-3.387031	-1.38768404123
99.66554	-3.368739	-1.31907023494
99.652319	-3.350447	-1.21465644252
99.639099	-3.332154	-1.08945872097
99.62588	-3.313861	-0.97611618068
99.612661	-3.295568	-0.881666593305
99.599442	-3.277275	-0.795064821147
99.586224	-3.258982	-0.683971680151
99.573006	-3.240689	-0.511518398361
99.559789	-3.222395	-0.292857354461
99.546572	-3.204101	-0.0672158850395
99.533356	-3.185807	0.141987468669
99.52014	-3.167513	0.298615509332
99.506924	-3.149219	0.342661311676
99.493709	-3.130924	0.258869084391
99.480495	-3.11263	0.104750989447
99.467281	-3.094335	-0.0694575949741
99.454067	-3.07604	-0.231616349821
99.440854	-3.057745	-0.346351455358
99.427641	-3.03945	-0.384512016995
99.414429	-3.021154	-0.353404914692
99.401217	-3.002859	-0.290270145783
99.388006	-2.984563	-0.228027066089
99.374795	-2.966267	-0.179426828752
99.361584	-2.947971	-0.121816807227
99.348374	-2.929675	-0.0229975334482
99.335164	-2.911378	0.091639774907
99.321955	-2.893082	0.193012027513
99.308746	-2.874785	0.280434525474
99.295537	-2.856488	0.342924117243
99.282329	-2.838191	0.339847408331
100.120158	-3.959099	0.690508015128
100.10692	-3.940813	0.609939806902
100.093682	-3.922527	0.489247587081
100.080445	-3.904241	0.33826320889
100.067209	-3.885955	0.173682562169
100.053973	-3.867668	0.0352805819563
100.040737	-3.849382	-0.0480768463112
100.027503	-3.831095	-0.123830469294
100.014268	-3.812808	-0.234661119894
100.001035	-3.79452	-0.402774218121
99.987802	-3.776233	-0.613179545448
99.974569	-3.757945	-0.709618611717
99.961337	-3.739657	-0.664438956548
99.948106	-3.721369	-0.65480244276
99.934875	-3.703081	-0.698711176804
99.921644	-3.684792	-0.772859872383
99.908414	-3.666504	-0.871252160802
99.895185	-3.648215	-1.0219682125
99.881956	-3.629926	-1.21266744168
99.868728	-3.611636	-1.41478714504
99.8555	-3.593347	-1.63300697581
99.842273	-3.575057	-1.85451239083
99.829046	-3.556767	-1.970696405
99.81582	-3.538477	-1.91637557238
99.802594	-3.520187	-1.83617970535
99.789369	-3.501896	-1.79606391157
99.776145	-3.483606	-1.80473820075
99.76292	-3.465315	-1.84757644608
99.749697	-3.447024	-1.82612752991
99.736474	-3.428733	-1.67887217822
99.723251	-3.410441	-1.53964088366
99.710029	-3.39215	-1.46233316319
99.696807	-3.373858	-1.44841428582
99.683586	-3.355566	-1.43800540744
99.670365	-3.337274	-1.29828536833
99.657145	-3.318981	-1.10569865118
99.643925	-3.300689	-0.964370141013
99.630706	-3.282396	-0.883314150727
99.617487	-3.264103	-0.854306922137
99.604268	-3.24581	-0.81710953957
99.591051	-3.227517	-0.627718337762
99.577833	-3.209224	-0.363597357124
99.564616	-3.19093	-0.112137943371
99.5514	-3.172637	0.13056090201
99.538184	-3.154343	0.352510685435
99.524968	-3.136049	0.410333127685
99.511753	-3.117754	0.258570228307
99.498538	-3.09946	0.0791020603679
99.485324	-3.081165	-0.0878865036935
99.47211	-3.062871	-0.239780000068
99.458897	-3.044576	-0.357874950072
99.445684	-3.026281	-0.391702583753
99.432471	-3.007986	-0.359220205867
99.419259	-2.98969	-0.324597898099
99.406048	-2.971395	-0.317594969876
99.392837	-2.953099	-0.353173232403
99.379626	-2.934803	-0.369322480861
99.366416	-2.916507	-0.203618505114
99.353206	-2.898211	0.00217010537871
99.339996	-2.879915	0.179951884958
99.326787	-2.861618	0.348196048666
99.313578	-2.843322	0.512030112299
99.30037	-2.825025	0.567618374409
100.138208	-3.945917	0.645921392045
100.12497	-3.927632	0.578383586887
100.111732	-3.909346	0.46220923788
100.098495	-3.89106	0.301677234194
100.085259	-3.872774	0.0995517977603
100.072023	-3.854488	-0.0990078757849
100.058787	-3.836202	-0.158773514375
100.045552	-3.817915	-0.249104123793
100.032318	-3.799628	-0.396586929483
100.019084	-3.781341	-0.616887248613
100.005851	-3.763054	-0.919077465931
99.992618	-3.744766	-1.02051208057
99.979386	-3.726479	-0.85016239312
99.966154	-3.708191	-0.755075483029
99.952923	-3.689903	-0.719667391752
99.939693	-3.671615	-0.715279176922
99.926463	-3.653326	-0.725564421952
99.913233	-3.635037	-0.86357729007
99.900004	-3.616749	-1.06761435797
99.886776	-3.598459	-1.28506115973
99.873548	-3.58017	-1.53804390878
99.86032	-3.561881	-1.84796397962
99.847093	-3.543591	-2.05337619681
99.833867	-3.525301	-1.87538244647
99.820641	-3.507011	-1.75963838745
99.807416	-3.488721	-1.71827945614
99.794191	-3.470431	-1.74773521782
99.780967	-3.45214	-1.85224204726
99.767743	-3.433849	-1.8925918997
99.754519	-3.415558	-1.64409174298
99.741297	-3.397267	-1.47393335055
99.728074	-3.378976	-1.39502967493
99.714852	-3.360684	-1.41194621801
99.701631	-3.342392	-1.51474581915
99.68841	-3.324101	-1.28546208233
99.67519	-3.305808	-1.04079290228
99.66197	-3.287516	-0.889056808376
99.64875	-3.269224	-0.820562171348
99.635531	-3.250931	-0.83162402084
99.622313	-3.232638	-0.901229869377
99.609095	-3.214345	-0.671773708475
99.595877	-3.196052	-0.398305306398
99.58266	-3.177759	-0.159069651243
99.569443	-3.159465	0.0786906346611
99.556227	-3.141172	0.342894408413
99.543011	-3.122878	0.421686922586
99.529796	-3.104584	0.205980155256
99.516581	-3.08629	0.0282946489278
99.503367	-3.067996	-0.117644769487
99.490153	-3.049701	-0.253087363415
99.476939	-3.031406	-0.38959358039
99.463726	-3.013112	-0.401066364786
99.450514	-2.994817	-0.347155548784
99.437301	-2.976521	-0.323516050364
99.42409	-2.958226	-0.342153225229
99.410878	-2.939931	-0.414740205524
99.397667	-2.921635	-0.494872424924
99.384457	-2.903339	-0.278993801479
99.371247	-2.885043	-0.0401681129013
99.358037	-2.866747	0.167287207222
99.344828	-2.848451	0.374144034227
99.331619	-2.830154	0.612776240861
99.318411	-2.811858	0.766098803522
100.156258	-3.932735	0.670811888428
100.14302	-3.91445	0.595441149076
100.129782	-3.896165	0.476351995834
100.116545	-3.877879	0.314257905903
100.103308	-3.859593	0.115236279821
100.090072	-3.841307	-0.0715607133516
100.076836	-3.823021	-0.18649122245
100.063601	-3.804735	-0.310657508426
100.050367	-3.786448	-0.47794179627
100.037133	-3.768161	-0.687884416462
100.023899	-3.749874	-0.900994913133
100.010666	-3.731587	-0.971181786455
99.997434	-3.7133	-0.88712371134
99.984202	-3.695012	-0.787856151156
99.970971	-3.676724	-0.717270956148
99.95774	-3.658436	-0.675076744445
99.94451	-3.640148	-0.672518445397
99.93128	-3.62186	-0.763135777459
99.918051	-3.603571	-0.925009821073
99.904823	-3.585282	-1.11886141337
99.891595	-3.566993	-1.34585625443
99.878367	-3.548704	-1.59529088204
99.86514	-3.530415	-1.72848270837
99.851913	-3.512125	-1.66712402624
99.838687	-3.493835	-1.58916015077
99.825462	-3.475545	-1.55882091115
99.812237	-3.457255	-1.57808899194
99.799012	-3.438965	-1.62836774505
99.785788	-3.420674	-1.6026021444
99.772565	-3.402383	-1.45196194744
99.759342	-3.384093	-1.30431993581
99.746119	-3.365801	-1.21701877661
99.732897	-3.34751	-1.19392561225
99.719676	-3.329219	-1.17645929392
99.706455	-3.310927	-1.03657222596
99.693234	-3.292635	-0.855516903347
99.680014	-3.274343	-0.728463505989
99.666794	-3.256051	-0.667683534618
99.653575	-3.237759	-0.662742097163
99.640357	-3.219466	-0.65543744649
99.627138	-3.201173	-0.542469417049
99.613921	-3.18288	-0.373802393425
99.600703	-3.164587	-0.211236816515
99.587487	-3.146294	-0.0514115937017
99.57427	-3.128001	0.0966348454876
99.561054	-3.109707	0.131405000496
99.547839	-3.091413	0.0398514257389
99.534624	-3.073119	-0.0666458338445
99.521409	-3.054825	-0.155875997767
99.508195	-3.036531	-0.237673540484
99.494981	-3.018237	-0.308663018257
99.481768	-2.999942	-0.317144629035
99.468555	-2.981647	-0.287535227452
99.455343	-2.963352	-0.275926455895
99.442131	-2.945057	-0.294224002038
99.42892	-2.926762	-0.332398362885
99.415708	-2.908466	-0.327486428109
99.402498	-2.890171	-0.207981987842
99.389288	-2.871875	-0.0309777275814
99.376078	-2.853579	0.149243914495
99.362868	-2.835283	0.330341508717
99.349659	-2.816987	0.504947575615
99.336451	-2.798691	0.569309569005
100.174308	-3.919553	0.743860040386
100.161069	-3.901268	0.656157180647
100.147831	-3.882983	0.530185909618
100.134594	-3.864698	0.371629181156
100.121357	-3.846412	0.191590723094
100.108121	-3.828126	0.0135054469032
100.094885	-3.80984	-0.150250889432
100.08165	-3.791554	-0.318221895105
100.068415	-3.773268	-0.503223946032
100.055181	-3.754981	-0.693560860716
100.041947	-3.736695	-0.846903902291
100.028714	-3.718408	-0.905506891969
100.015482	-3.700121	-0.865441874804
100.00225	-3.681833	-0.778820029063
99.989018	-3.663546	-0.690947052718
99.975787	-3.645258	-0.626731559919
99.962557	-3.62697	-0.609177852097
99.949327	-3.608682	-0.658870029086
99.936098	-3.590393	-0.769527316433
99.922869	-3.572105	-0.91956902474
99.909641	-3.553816	-1.09067562227
99.896413	-3.535527	-1.25318034187
99.883186	-3.517238	-1.3508680014
99.869959	-3.498949	-1.36647961668
99.856733	-3.480659	-1.34904249183
99.843507	-3.462369	-1.33712721888
99.830282	-3.444079	-1.33738259906
99.817058	-3.425789	-1.33149184354
99.803833	-3.407499	-1.28079469974
99.79061	-3.389208	-1.17641639816
99.777387	-3.370918	-1.05695937313
99.764164	-3.352627	-0.955971507811
99.750942	-3.334336	-0.879132541837
99.73772	-3.316045	-0.801797017396
99.724499	-3.297753	-0.696944685948
99.711278	-3.279462	-0.584414998208
99.698058	-3.26117	-0.497169777628
99.684838	-3.242878	-0.446587697184
99.671619	-3.224586	-0.425463019713
99.6584	-3.206293	-0.407925238899
99.645182	-3.188001	-0.3688313328
99.631964	-3.169708	-0.315807992333
99.618746	-3.151415	-0.264697511736
99.605529	-3.133122	-0.216775055055
99.592313	-3.114829	-0.177029031738
99.579097	-3.096536	-0.164997215935
99.565881	-3.078242	-0.178280060163
99.552666	-3.059948	-0.193055226419
99.539451	-3.041655	-0.200510112152
99.526237	-3.023361	-0.206049334545
99.513023	-3.005066	-0.209316825909
99.49981	-2.986772	-0.202288252159
99.486597	-2.968477	-0.192555744774
99.473384	-2.950183	-0.194393053858
99.460172	-2.931888	-0.208803221035
99.44696	-2.913593	-0.220532460222
99.433749	-2.895298	-0.198480140891
99.420538	-2.877002	-0.121651396946
99.407328	-2.858707	-0.00502990941747
99.394118	-2.840411	0.125746950821
99.380908	-2.822115	0.254340169636
99.367699	-2.803819	0.357726869991
99.35449	-2.785523	0.394168830099
100.192357	-3.90637	0.853665398518
100.179118	-3.888086	0.750368917084
100.16588	-3.869801	0.611818660251
100.152642	-3.851516	0.452855907338
100.139405	-3.83323	0.28060627328
100.126169	-3.814945	0.0983905260761
100.112933	-3.796659	-0.0939934924619
100.099697	-3.778373	-0.298154839357
100.086463	-3.760087	-0.509135228793
100.073228	-3.741801	-0.707562208579
100.059995	-3.723515	-0.854705756794
100.046761	-3.705228	-0.908722238128
100.033529	-3.686941	-0.864285409875
100.020297	-3.668654	-0.759986423462
100.007065	-3.650367	-0.641736949129
99.993834	-3.632079	-0.543231133457
99.980604	-3.613791	-0.492634333637
99.967374	-3.595503	-0.508656742308
99.954144	-3.577215	-0.586368274777
99.940915	-3.558927	-0.701267697296
99.927687	-3.540638	-0.826907907587
99.914459	-3.52235	-0.940352403062
99.901232	-3.504061	-1.02235901747
99.888005	-3.485772	-1.06815218787
99.874778	-3.467482	-1.08782377281
99.861553	-3.449193	-1.09147906915
99.848327	-3.430903	-1.08087414358
99.835102	-3.412613	-1.04899898707
99.821878	-3.394323	-0.986304699808
99.808654	-3.376033	-0.892572648278
99.795431	-3.357743	-0.778684386228
99.782208	-3.339452	-0.657601093888
99.768986	-3.321161	-0.539165890988
99.755764	-3.30287	-0.431828744063
99.742542	-3.284579	-0.343434421046
99.729322	-3.266288	-0.276753103122
99.716101	-3.247996	-0.227306718993
99.702881	-3.229704	-0.191089590828
99.689662	-3.211412	-0.168969161389
99.676443	-3.19312	-0.166929479698
99.663224	-3.174828	-0.192574001191
99.650006	-3.156536	-0.245434399397
99.636789	-3.138243	-0.315434191995
99.623571	-3.11995	-0.388440765466
99.610355	-3.101657	-0.443421194231
99.597139	-3.083364	-0.454398140614
99.583923	-3.065071	-0.411079075898
99.570707	-3.046777	-0.333224698772
99.557493	-3.028484	-0.247249079785
99.544278	-3.01019	-0.169815105447
99.531064	-2.991896	-0.112347764913
99.517851	-2.973602	-0.0832668265749
99.504637	-2.955307	-0.0825617076017
99.491425	-2.937013	-0.0994514561195
99.478212	-2.918718	-0.119712330322
99.465001	-2.900423	-0.128738369678
99.451789	-2.882129	-0.112035303774
99.438578	-2.863833	-0.0625740591868
99.425368	-2.845538	0.0131214377854
99.412157	-2.827243	0.100668258039
99.398948	-2.808947	0.184782557434
99.385738	-2.790651	0.247896348496
99.372529	-2.772355	0.272749820931
100.210405	-3.893187	1.00566918992
100.197167	-3.874903	0.867606970381
100.183928	-3.856618	0.704506523354
100.17069	-3.838333	0.541660088834
100.157453	-3.820048	0.376889797025
100.144217	-3.801763	0.192984109585
100.13098	-3.783478	-0.0236521027676
100.117745	-3.765192	-0.265262910736
100.10451	-3.746906	-0.515426858305
100.091275	-3.72862	-0.754960783716
100.078042	-3.710334	-0.939030119064
100.064808	-3.692048	-0.994782044304
100.051575	-3.673761	-0.906030895276
100.038343	-3.655474	-0.744978854785
100.025111	-3.637187	-0.571772533579
100.01188	-3.6189	-0.416996103409
99.99865	-3.600612	-0.316112396655
99.985419	-3.582325	-0.305807493896
99.97219	-3.564037	-0.376669711262
99.958961	-3.545749	-0.4790765685
99.945732	-3.52746	-0.576979685449
99.932504	-3.509172	-0.658555445066
99.919277	-3.490883	-0.728790472495
99.90605	-3.472594	-0.792023484671
99.892823	-3.454305	-0.837225481366
99.879597	-3.436016	-0.853376843471
99.866372	-3.417727	-0.837195715565
99.853147	-3.399437	-0.78962774393
99.839922	-3.381147	-0.716949823169
99.826698	-3.362857	-0.623671722225
99.813475	-3.344567	-0.504102485493
99.800252	-3.326277	-0.354879618799
99.787029	-3.307986	-0.187962055247
99.773807	-3.289695	-0.044306828536
99.760586	-3.271404	0.0276981361236
99.747365	-3.253113	0.0416801523446
99.734144	-3.234822	0.0491295909882
99.720924	-3.21653	0.0719249876336
99.707704	-3.198239	0.101572145154
99.694485	-3.179947	0.0974679958356
99.681266	-3.161655	0.00771392704115
99.668048	-3.143363	-0.158826635805
99.65483	-3.12507	-0.358812980848
99.641613	-3.106778	-0.56896345932
99.628396	-3.088485	-0.744328394379
99.61518	-3.070192	-0.788656370329
99.601964	-3.051899	-0.667507258558
99.588749	-3.033606	-0.476087498345
99.575533	-3.015312	-0.286364895015
99.562319	-2.997019	-0.118045919053
99.549105	-2.978725	0.00726191505954
99.535891	-2.960431	0.0571831232355
99.522678	-2.942137	0.0376031547729
99.509465	-2.923843	-0.0060336028989
99.496252	-2.905548	-0.0431766128545
99.48304	-2.887254	-0.0624304455936
99.469829	-2.868959	-0.0580965340514
99.456618	-2.850664	-0.0286060960324
99.443407	-2.832369	0.0199985906988
99.430197	-2.814074	0.0768048135354
99.416987	-2.795778	0.13051984639
99.403777	-2.777483	0.170250487577
99.390568	-2.759187	0.188173540431
100.228453	-3.880004	1.1979502497
100.215214	-3.86172	0.981136048785
100.201976	-3.843435	0.782350781232
100.188738	-3.825151	0.619982836901
100.175501	-3.806866	0.47905912007
100.162264	-3.788581	0.309604267043
100.149027	-3.770296	0.0628448206549
100.135792	-3.752011	-0.223365438749
100.122557	-3.733725	-0.517801558811
100.109322	-3.715439	-0.821771152321
100.096088	-3.697153	-1.10371887073
100.082854	-3.678867	-1.17618754379
100.069622	-3.660581	-0.975851312103
100.056389	-3.642294	-0.726236077975
100.043157	-3.624007	-0.485740567074
100.029926	-3.60572	-0.254266954482
100.016695	-3.587433	-0.0703785001787
100.003465	-3.569146	-0.0477367947619
99.990235	-3.550858	-0.159035843296
99.977006	-3.53257	-0.274584050415
99.963777	-3.514282	-0.355217962867
99.950549	-3.495994	-0.40111069241
99.937321	-3.477706	-0.453285285068
99.924094	-3.459417	-0.543891712881
99.910867	-3.441128	-0.617930261841
99.897641	-3.422839	-0.645750027414
99.884416	-3.40455	-0.624315858354
99.87119	-3.38626	-0.557587924442
99.857966	-3.367971	-0.471232262558
99.844742	-3.349681	-0.385719903228
99.831518	-3.331391	-0.263005587985
99.818295	-3.313101	-0.0816094098295
99.805072	-3.294811	0.157477915769
99.79185	-3.27652	0.38214289822
99.778628	-3.258229	0.418088096442
99.765407	-3.239939	0.338464399943
99.752186	-3.221647	0.294922957711
99.738966	-3.203356	0.308628006332
99.725746	-3.185065	0.370934565041
99.712527	-3.166773	0.410553807713
99.699308	-3.148481	0.246501304935
99.68609	-3.130189	-0.0567788786145
99.672872	-3.111897	-0.381292245859
99.659654	-3.093605	-0.736789979691
99.646437	-3.075312	-1.10363473515
99.633221	-3.05702	-1.2136506126
99.620005	-3.038727	-0.926919492508
99.606789	-3.020434	-0.596033259185
99.593574	-3.002141	-0.307875803526
99.580359	-2.983847	-0.0443273885132
99.567145	-2.965554	0.176004602597
99.553931	-2.94726	0.237600160067
99.540718	-2.928966	0.15667634421
99.527505	-2.910672	0.0701831701498
99.514292	-2.892378	0.0116343546821
99.50108	-2.874084	-0.0208255923273
99.487868	-2.855789	-0.0295822031361
99.474657	-2.837495	-0.0130837511826
99.461446	-2.8192	0.0186854374047
99.448235	-2.800905	0.0551766261565
99.435025	-2.78261	0.0888858078307
99.421816	-2.764314	0.113360576715
99.408606	-2.746019	0.12588081177
100.246501	-3.86682	1.32225785889
100.233262	-3.848536	1.02457217495
100.220023	-3.830252	0.807648459741
100.206785	-3.811968	0.655807833323
100.193547	-3.793684	0.556289209839
100.18031	-3.775399	0.450330956825
100.167074	-3.757114	0.140415814568
100.153838	-3.738829	-0.180821203012
100.140603	-3.720544	-0.495174531044
100.127368	-3.702258	-0.830891566022
100.114134	-3.683972	-1.20900997684
100.1009	-3.665686	-1.32160341598
100.087667	-3.6474	-0.981072562667
100.074435	-3.629114	-0.677512981886
100.061203	-3.610827	-0.399048604466
100.047971	-3.59254	-0.110643856837
100.03474	-3.574253	0.202678037384
100.02151	-3.555966	0.199471917079
100.00828	-3.537679	0.010505908097
99.99505	-3.519391	-0.120668892575
99.981821	-3.501104	-0.189837666977
99.968593	-3.482816	-0.197558570631
99.955365	-3.464527	-0.201728074624
99.942138	-3.446239	-0.353648472222
99.928911	-3.42795	-0.451743313729
99.915685	-3.409662	-0.4872565352
99.902459	-3.391373	-0.463188589499
99.889234	-3.373084	-0.378994219372
99.876009	-3.354794	-0.265537025283
99.862785	-3.336505	-0.2089815849
99.849561	-3.318215	-0.0876746091967
99.836338	-3.299925	0.111375401967
99.823115	-3.281635	0.402288594618
99.809892	-3.263345	0.780266176898
99.796671	-3.245054	0.715281322042
99.783449	-3.226764	0.542995648994
99.770228	-3.208473	0.465005063929
99.757008	-3.190182	0.468882816866
99.743788	-3.17189	0.548818550725
99.730569	-3.153599	0.685165651616
99.71735	-3.135308	0.420355744907
99.704131	-3.117016	0.0254803234997
99.690913	-3.098724	-0.359602478436
99.677695	-3.080432	-0.786716982286
99.664478	-3.06214	-1.30590808257
99.651261	-3.043847	-1.52482726325
99.638045	-3.025554	-1.04012371889
99.624829	-3.007262	-0.641747292205
99.611614	-2.988969	-0.312722582252
99.598399	-2.970676	0.0042098573971
99.585185	-2.952382	0.345418615887
99.571971	-2.934089	0.392837921325
99.558757	-2.915795	0.221751622757
99.545544	-2.897501	0.105799004402
99.532331	-2.879207	0.0373497266516
99.519119	-2.860913	-0.000473463840329
99.505907	-2.842619	-0.017326751386
99.492695	-2.824325	-0.00742391000856
99.479484	-2.80603	0.0132418830555
99.466274	-2.787735	0.0361631880176
99.453064	-2.76944	0.0567358681627
99.439854	-2.751145	0.0709776223883
99.426644	-2.73285	0.0780864623899
100.264548	-3.853636	1.15568224753
100.251308	-3.835353	0.939692916899
100.23807	-3.817069	0.75514512382
100.224831	-3.798785	0.619309533621
100.211594	-3.780501	0.522107664827
100.198357	-3.762216	0.397808238389
100.18512	-3.743931	0.138381756601
100.171884	-3.725647	-0.153083292207
100.158649	-3.707362	-0.437910634614
100.145414	-3.689076	-0.72394829331
100.132179	-3.670791	-0.98219062089
100.118946	-3.652505	-1.03313529615
100.105712	-3.634219	-0.837682433355
100.09248	-3.615933	-0.583537703249
100.079247	-3.597647	-0.328509386103
100.066016	-3.57936	-0.0672731947363
100.052785	-3.561074	0.169006694107
100.039554	-3.542787	0.194757068474
100.026324	-3.524499	0.0693565585392
100.013094	-3.506212	-0.0409283246529
99.999865	-3.487925	-0.105524518625
99.986637	-3.469637	-0.127909168572
99.973409	-3.451349	-0.166017949524
99.960181	-3.433061	-0.26954252397
99.946954	-3.414772	-0.354467146771
99.933728	-3.396484	-0.388018034875
99.920502	-3.378195	-0.368388008647
99.907277	-3.359906	-0.29939849163
99.894052	-3.341617	-0.210974262458
99.880827	-3.323328	-0.123951653664
99.867603	-3.305038	0.00315388083549
99.85438	-3.286749	0.191865589488
99.841157	-3.268459	0.440680898552
99.827934	-3.250169	0.674360535946
99.814712	-3.231879	0.694692817026
99.801491	-3.213588	0.598558434294
99.78827	-3.195298	0.535350630464
99.775049	-3.177007	0.526444604572
99.761829	-3.158716	0.558764032928
99.74861	-3.140425	0.559051403668
99.73539	-3.122133	0.372346869501
99.722172	-3.103842	0.0579751830736
99.708953	-3.08555	-0.284665731305
99.695736	-3.067258	-0.650430824187
99.682518	-3.048966	-1.00640964829
99.669302	-3.030674	-1.11055625206
99.656085	-3.012382	-0.883907431475
99.642869	-2.994089	-0.586972960539
99.629654	-2.975796	-0.310467695914
99.616439	-2.957503	-0.040975074652
99.603224	-2.93921	0.20714175006
99.59001	-2.920917	0.266301381298
99.576796	-2.902624	0.171508019405
99.563583	-2.88433	0.0847219196366
99.55037	-2.866036	0.0312024611635
99.537157	-2.847743	0.00236124779725
99.523945	-2.829449	-0.00867933682697
99.510734	-2.811154	-0.00513682855148
99.497522	-2.79286	0.00631351987105
99.484312	-2.774565	0.0195475446524
99.471101	-2.756271	0.0314260595418
99.457891	-2.737976	0.0403524673494
99.444682	-2.719681	0.0473531690566
100.282594	-3.840452	0.885431475959
100.269355	-3.822168	0.767855982604
100.256116	-3.803885	0.639177423327
100.242877	-3.785601	0.523236853036
100.22964	-3.767317	0.413142376548
100.216402	-3.749033	0.274460803032
100.203166	-3.730749	0.0818677457758
100.189929	-3.712464	-0.140177205325
100.176694	-3.694179	-0.363716391879
100.163459	-3.675894	-0.57018137905
100.150224	-3.657609	-0.719268104766
100.13699	-3.639324	-0.745934331643
100.123757	-3.621038	-0.641744749123
100.110524	-3.602752	-0.466461018532
100.097292	-3.584466	-0.26929258369
100.08406	-3.56618	-0.0774106474362
100.070829	-3.547893	0.0653883528406
100.057598	-3.529607	0.103203093286
100.044368	-3.51132	0.0535395056677
100.031138	-3.493033	-0.0206258931039
100.017909	-3.474745	-0.0840777107186
100.00468	-3.456458	-0.133900344584
99.991452	-3.43817	-0.189597876949
99.978224	-3.419882	-0.258508510059
99.964997	-3.401594	-0.316501200226
99.951771	-3.383306	-0.342834244945
99.938545	-3.365017	-0.330737141646
99.925319	-3.346729	-0.281973129705
99.912094	-3.32844	-0.206246002687
99.898869	-3.310151	-0.107717901831
99.885645	-3.291862	0.0221978257682
99.872422	-3.273572	0.187144752849
99.859198	-3.255283	0.370468090831
99.845976	-3.236993	0.518197946078
99.832754	-3.218703	0.572575748757
99.819532	-3.200413	0.556449602065
99.806311	-3.182122	0.52756289215
99.79309	-3.163832	0.511013041126
99.77987	-3.145541	0.496366187406
99.76665	-3.12725	0.439707048425
99.753431	-3.108959	0.295460981295
99.740212	-3.090668	0.0765860808727
99.726994	-3.072376	-0.175104419373
99.713776	-3.054085	-0.428603172127
99.700558	-3.035793	-0.633356824236
99.687341	-3.017501	-0.704909963456
99.674125	-2.999209	-0.627128598388
99.660908	-2.980916	-0.473796292484
99.647693	-2.962624	-0.302975127147
99.634478	-2.944331	-0.134570773754
99.621263	-2.926038	0.00235378309433
99.608048	-2.907745	0.060464272283
99.594835	-2.889452	0.0495551414526
99.581621	-2.871159	0.0206468083137
99.568408	-2.852865	-0.000235974973669
99.555195	-2.834572	-0.0100431765303
99.541983	-2.816278	-0.0115035666903
99.528771	-2.797984	-0.00769008734783
99.51556	-2.77969	-0.00161585802082
99.502349	-2.761395	0.00448586990086
99.489139	-2.743101	0.0098159032842
99.475928	-2.724806	0.0148601119307
99.462719	-2.706511	0.0209720481222
100.30064	-3.827267	0.641706339079
100.287401	-3.808984	0.578723210461
100.274161	-3.790701	0.496580926275
100.260923	-3.772417	0.404520960277
100.247685	-3.754134	0.301560687989
100.234447	-3.73585	0.179329380806
100.221211	-3.717566	0.0332733483762
100.207974	-3.699281	-0.128978946736
100.194739	-3.680997	-0.292590614322
100.181503	-3.662712	-0.43722091437
100.168269	-3.644427	-0.532642320428
100.155035	-3.626142	-0.548116392545
100.141801	-3.607856	-0.479546811832
100.128568	-3.589571	-0.354116574801
100.115336	-3.571285	-0.206591345075
100.102104	-3.552999	-0.0678509872456
100.088872	-3.534713	0.0294722517009
100.075641	-3.516426	0.061492883821
100.062411	-3.49814	0.0346466460451
100.049181	-3.479853	-0.0236168870314
100.035952	-3.461566	-0.0901684561378
100.022723	-3.443278	-0.155357667775
100.009495	-3.424991	-0.217368926623
99.996267	-3.406703	-0.273095205163
99.98304	-3.388416	-0.315260611935
99.969813	-3.370127	-0.337026047937
99.956587	-3.351839	-0.333305980837
99.943361	-3.333551	-0.299525639353
99.930136	-3.315262	-0.232274780745
99.916911	-3.296973	-0.131848662737
99.903687	-3.278684	-0.00321590550504
99.890463	-3.260395	0.144286743474
99.87724	-3.242106	0.29223652841
99.864017	-3.223816	0.410207603658
99.850794	-3.205526	0.474344805406
99.837573	-3.187237	0.490545316726
99.824351	-3.168946	0.482800752306
99.81113	-3.150656	0.466184052378
99.79791	-3.132366	0.436045841452
99.78469	-3.114075	0.373157585211
99.771471	-3.095784	0.262713625066
99.758252	-3.077493	0.112215067277
99.745033	-3.059202	-0.0548925170288
99.731815	-3.04091	-0.212717923982
99.718597	-3.022619	-0.333699614463
99.70538	-3.004327	-0.394799039225
99.692164	-2.986035	-0.395099909426
99.678947	-2.967743	-0.353263346309
99.665731	-2.949451	-0.290200851936
99.652516	-2.931158	-0.220345958428
99.639301	-2.912866	-0.155831365208
99.626087	-2.894573	-0.107319212747
99.612873	-2.87628	-0.0767532097326
99.599659	-2.857987	-0.0578084761092
99.586446	-2.839694	-0.0433315992193
99.573233	-2.8214	-0.0302277690389
99.560021	-2.803107	-0.019227634139
99.546809	-2.784813	-0.0122579377239
99.533597	-2.766519	-0.00954365108224
99.520386	-2.748225	-0.00969240219158
99.507175	-2.72993	-0.0109299399361
99.493965	-2.711636	-0.0105969563071
99.480755	-2.693341	-0.00547766245297
100.318686	-3.814082	0.424939567026
100.305446	-3.795799	0.40068225031
100.292207	-3.777516	0.356654981066
100.278968	-3.759233	0.289140185076
100.26573	-3.74095	0.202165357809
100.252492	-3.722666	0.104252438535
100.239255	-3.704382	2.69135970338e-05
100.226019	-3.686098	-0.11266755325
100.212783	-3.667814	-0.230033682689
100.199547	-3.649529	-0.337507271708
100.186313	-3.631244	-0.410575481664
100.173078	-3.61296	-0.420412386965
100.159845	-3.594674	-0.359714540378
100.146611	-3.576389	-0.253886192022
100.133379	-3.558103	-0.132754605462
100.120147	-3.539818	-0.0210448859783
100.106915	-3.521532	0.0539913061795
100.093684	-3.503246	0.0718366283365
100.080454	-3.484959	0.0385151996338
100.067224	-3.466673	-0.0251189802778
100.053994	-3.448386	-0.103355826839
100.040765	-3.430099	-0.184409739314
100.027537	-3.411812	-0.254047561152
100.014309	-3.393524	-0.302564961426
100.001081	-3.375237	-0.334163196377
99.987855	-3.356949	-0.35521155589
99.974628	-3.338661	-0.364225432483
99.961402	-3.320373	-0.34953545565
99.948177	-3.302084	-0.291068539446
99.934952	-3.283796	-0.185386451656
99.921728	-3.265507	-0.0528544764786
99.908504	-3.247218	0.089916248725
99.89528	-3.228929	0.228792710059
99.882057	-3.210639	0.341495243926
99.868835	-3.19235	0.406817925151
99.855613	-3.17406	0.428337539219
99.842391	-3.15577	0.427092363544
99.82917	-3.13748	0.415045853972
99.81595	-3.11919	0.390059277177
99.80273	-3.1009	0.340937269888
99.78951	-3.082609	0.260468257869
99.776291	-3.064318	0.159650412714
99.763072	-3.046027	0.0589598685857
99.749854	-3.027736	-0.0236409991715
99.736636	-3.009445	-0.0825583874933
99.723419	-2.991153	-0.134673617821
99.710202	-2.972861	-0.193436983204
99.696986	-2.95457	-0.243168954246
99.68377	-2.936277	-0.276327328825
99.670554	-2.917985	-0.2968831674
99.657339	-2.899693	-0.295219726038
99.644124	-2.8814	-0.254191919585
99.63091	-2.863108	-0.189851493757
99.617696	-2.844815	-0.131054950711
99.604483	-2.826522	-0.0847292961189
99.59127	-2.808228	-0.0485213825232
99.578058	-2.789935	-0.0235152420365
99.564846	-2.771641	-0.0135485062778
99.551634	-2.753348	-0.0154308139332
99.538423	-2.735054	-0.0227061351618
99.525212	-2.71676	-0.032186489828
99.512001	-2.698466	-0.0393197328706
99.498791	-2.680171	-0.035436573686
100.33673	-3.800897	0.224080306531
100.323491	-3.782614	0.247121362437
100.310251	-3.764332	0.239784931434
100.297012	-3.746049	0.193663389855
100.283774	-3.727765	0.11685398976
100.270536	-3.709482	0.0406970016539
100.257299	-3.691198	-0.017185596069
100.244063	-3.672915	-0.0848989517562
100.230826	-3.65463	-0.168224470021
100.217591	-3.636346	-0.257925116066
100.204356	-3.618062	-0.33503382567
100.191122	-3.599777	-0.346980724798
100.177888	-3.581492	-0.269037084655
100.164654	-3.563207	-0.160545144267
100.151422	-3.544922	-0.0479733565365
100.138189	-3.526636	0.0578480962445
100.124958	-3.50835	0.129792090172
100.111727	-3.490065	0.124624883244
100.098496	-3.471778	0.0658034633309
100.085266	-3.453492	-0.0154138023306
100.072036	-3.435205	-0.113294691698
100.058807	-3.416919	-0.220772545486
100.045578	-3.398632	-0.30656064288
100.03235	-3.380345	-0.341591189272
100.019123	-3.362057	-0.35858538337
100.005896	-3.34377	-0.380289549412
99.992669	-3.325482	-0.408220325301
99.979443	-3.307194	-0.429690369084
99.966218	-3.288906	-0.383538425043
99.952993	-3.270618	-0.255876032346
99.939768	-3.252329	-0.113178634902
99.926544	-3.23404	0.0320899223472
99.91332	-3.215751	0.178247762683
99.900097	-3.197462	0.305519997695
99.886875	-3.179173	0.365297365447
99.873653	-3.160884	0.370672826189
99.860431	-3.142594	0.36660281532
99.84721	-3.124304	0.361595585571
99.833989	-3.106014	0.353172255029
99.820769	-3.087724	0.328641777284
99.807549	-3.069433	0.269643025793
99.79433	-3.051143	0.203104478668
99.781111	-3.032852	0.152121093765
99.767893	-3.014561	0.132629968859
99.754675	-2.99627	0.14542438945
99.741457	-2.977979	0.115849396603
99.72824	-2.959687	-0.014703769895
99.715024	-2.941396	-0.148110864124
99.701808	-2.923104	-0.261616598345
99.688592	-2.904812	-0.37051229134
99.675377	-2.88652	-0.447411785796
99.662162	-2.868227	-0.395826895507
99.648947	-2.849935	-0.280986984564
99.635734	-2.831642	-0.186705075638
