99.883655	-4.089818	-3.36080276504
99.857185	-4.05324	-2.35754531572
99.830717	-4.016661	-1.72427460018
99.804252	-3.980081	-1.33603759475
99.777788	-3.9435	-1.08394339558
99.751327	-3.906919	-1.09573222991
99.724869	-3.870337	-1.41090983035
99.698412	-3.833753	-1.78674729611
99.671957	-3.79717	-1.96427744392
99.645505	-3.760585	-1.98003920258
99.619054	-3.724	-1.95793553421
99.592606	-3.687414	-3.01264644242
99.56616	-3.650827	-4.92768345691
99.539715	-3.614239	-6.92301978172
99.513273	-3.577651	-5.683515846
99.486833	-3.541062	-4.38105349628
99.460395	-3.504473	-3.77069311681
99.433958	-3.467882	-4.39454403859
99.407524	-3.431291	-5.64945316723
99.381091	-3.3947	-6.42780083986
99.35466	-3.358107	-2.84835208608
99.328232	-3.321514	1.01435433313
99.301805	-3.284921	3.18554864447
99.275379	-3.248326	2.96777187127
99.248956	-3.211731	3.44971479926
99.222534	-3.175136	2.04323457197
99.196114	-3.13854	-0.559351192628
99.169696	-3.101943	-3.11228156159
99.143279	-3.065346	-3.62056813653
99.116865	-3.028748	-3.12657238642
99.919768	-4.063464	-2.64746665394
99.893297	-4.026887	-1.75043659169
99.866829	-3.990308	-1.16908832012
99.840363	-3.95373	-0.791236182813
99.813899	-3.91715	-0.534606574454
99.787437	-3.880569	-0.608752591494
99.760977	-3.843988	-1.07130829094
99.73452	-3.807406	-1.5991107446
99.708065	-3.770823	-1.85468877082
99.681611	-3.73424	-1.87829910286
99.65516	-3.697655	-1.85712637533
99.628711	-3.66107	-2.80416190272
99.602264	-3.624485	-4.53852021764
99.575819	-3.587898	-6.2116356854
99.549376	-3.551311	-5.14010890175
99.522935	-3.514723	-3.87069046842
99.496496	-3.478134	-3.22224945189
99.470059	-3.441545	-3.89294507924
99.443624	-3.404955	-5.1588148393
99.417191	-3.368364	-5.90777436227
99.390759	-3.331772	-2.45375610971
99.36433	-3.29518	1.281907163
99.337902	-3.258588	3.30111963635
99.311476	-3.221994	3.02796674909
99.285052	-3.1854	3.39216205873
99.25863	-3.148806	2.0666910621
99.232209	-3.11221	-0.273920857304
99.20579	-3.075615	-2.42290001942
99.179373	-3.039018	-2.86445228521
99.152957	-3.002421	-2.44920823016
99.126543	-2.965823	-2.31341974015
99.955879	-4.037108	-1.25175603608
99.929407	-4.000532	-0.931784303781
99.902938	-3.963955	-0.572512685974
99.876471	-3.927377	-0.192565030284
99.850007	-3.890798	0.116018153574
99.823544	-3.854219	-0.015866455916
99.797084	-3.817638	-0.690082863653
99.770626	-3.781057	-1.41737160657
99.74417	-3.744475	-1.81167627441
99.717716	-3.707893	-1.92493306557
99.691264	-3.67131	-2.08405428069
99.664815	-3.634725	-2.59075410485
99.638367	-3.598141	-3.32823913807
99.611921	-3.561555	-3.78223852229
99.585478	-3.524969	-3.56803380098
99.559036	-3.488382	-3.03185658688
99.532596	-3.451794	-2.71485788463
99.506158	-3.415206	-2.91656306191
99.479722	-3.378616	-3.22486957189
99.453288	-3.342027	-2.85637035594
99.426856	-3.305436	-1.30245324291
99.400426	-3.268845	0.619406628861
99.373998	-3.232253	1.76168169618
99.347571	-3.195661	1.87016437462
99.321146	-3.159068	1.54707162416
99.294723	-3.122474	0.852368758177
99.268302	-3.08588	-0.033307042876
99.241882	-3.049285	-0.784550340076
99.215464	-3.012689	-1.20740126118
99.189048	-2.976093	-1.3780004531
99.162633	-2.939496	-1.41820305795
99.991987	-4.010751	0.0730404927985
99.965515	-3.974175	-0.152867051519
99.939046	-3.937599	-0.0322730944877
99.912578	-3.901022	0.349759154491
99.886113	-3.864445	1.03789314056
99.85965	-3.827866	1.04146305399
99.833189	-3.791287	-0.34055094381
99.80673	-3.754707	-1.58018284269
99.780273	-3.718126	-1.99433930482
99.753819	-3.681545	-1.9397758912
99.727366	-3.644962	-1.96461405681
99.700916	-3.608379	-2.15981127089
99.674467	-3.571795	-2.27922250184
99.648021	-3.535211	-2.03694119259
99.621577	-3.498625	-2.19124476922
99.595134	-3.462039	-1.98788080656
99.568694	-3.425453	-1.58627507807
99.542255	-3.388865	-1.76607130504
99.515819	-3.352277	-1.61639628
99.489384	-3.315688	-0.984571197503
99.462951	-3.279099	-0.428720327529
99.43652	-3.242508	0.513962500997
99.410091	-3.205917	1.09035979745
99.383664	-3.169326	0.788806983493
99.357238	-3.132734	-0.0488356381989
99.330814	-3.096141	-0.256078970811
99.304392	-3.059547	0.0592823555823
99.277972	-3.022953	0.481671249821
99.251553	-2.986359	0.17837426141
99.225136	-2.949763	-0.419091042159
99.198721	-2.913167	-0.616787420142
100.028094	-3.984392	0.742354892108
100.001621	-3.947818	0.298537804912
99.975151	-3.911243	0.246881222232
99.948683	-3.874667	0.506519613684
99.922217	-3.83809	1.15712423347
99.895753	-3.801513	1.16286484159
99.869291	-3.764934	-0.253055371488
99.842832	-3.728355	-1.49882074441
99.816374	-3.691776	-1.89883455875
99.789919	-3.655195	-1.8486583985
99.763466	-3.618614	-1.84410812717
99.737015	-3.582032	-1.89160285124
99.710566	-3.545449	-1.79127740732
99.684119	-3.508865	-1.42206008395
99.657674	-3.472281	-1.53977532938
99.631231	-3.435696	-1.37973540999
99.60479	-3.39911	-0.923826889317
99.57835	-3.362523	-1.09000826705
99.551913	-3.325936	-0.879693341284
99.525478	-3.289348	-0.385420333261
99.499044	-3.252759	-0.0811051075378
99.472613	-3.21617	0.433119086061
99.446183	-3.17958	0.674015826043
99.419755	-3.14299	0.2109679119
99.393329	-3.106398	-0.628963856755
99.366904	-3.069806	-0.637702551298
99.340481	-3.033214	-0.0122298665863
99.31406	-2.996621	0.65369915779
99.287641	-2.960027	0.55544143637
99.261223	-2.923432	0.0833609462808
99.234807	-2.886837	-0.113858893353
100.064198	-3.958032	0.692845252729
100.037725	-3.921459	0.372430402954
100.011254	-3.884885	0.213588217954
99.984785	-3.84831	0.222839555669
99.958318	-3.811734	0.27815431234
99.931854	-3.775158	0.0892758493075
99.905392	-3.73858	-0.454213904469
99.878932	-3.702002	-1.05282297003
99.852474	-3.665424	-1.4506472544
99.826018	-3.628844	-1.68171080394
99.799564	-3.592264	-1.83527143772
99.773112	-3.555682	-1.85689513292
99.746662	-3.519101	-1.77253009093
99.720215	-3.482518	-1.64788434038
99.693769	-3.445934	-1.53016300996
99.667325	-3.40935	-1.36572180991
99.640883	-3.372765	-1.16865052446
99.614444	-3.33618	-1.01041706616
99.588006	-3.299594	-0.806805652497
99.56157	-3.263007	-0.506242809637
99.535135	-3.226419	-0.121526045199
99.508703	-3.189831	0.252182272901
99.482273	-3.153242	0.340528753618
99.455844	-3.116652	0.0439922539182
99.429417	-3.080062	-0.339864195094
99.402992	-3.04347	-0.40860761157
99.376568	-3.006879	-0.17636835259
99.350147	-2.970287	0.0754561092954
99.323727	-2.933694	0.194960688182
99.297308	-2.8971	0.209645915473
99.270892	-2.860506	0.183016208633
100.100301	-3.93167	0.5541286986
100.073827	-3.895098	0.255996682542
100.047355	-3.858525	-0.0115083340061
100.020885	-3.821951	-0.173206107689
99.994418	-3.785377	-0.508337464658
99.967953	-3.748801	-0.689459245965
99.94149	-3.712225	-0.671510300211
99.915029	-3.675648	-0.817578091347
99.888571	-3.63907	-1.1152753793
99.862114	-3.602492	-1.52155450274
99.83566	-3.565912	-1.93549108182
99.809207	-3.529332	-1.87279914676
99.782757	-3.492751	-1.79434093313
99.756308	-3.456169	-1.85444418802
99.729862	-3.419587	-1.6026799212
99.703418	-3.383004	-1.44850168982
99.676975	-3.34642	-1.38662238675
99.650535	-3.309835	-1.02733958015
99.624096	-3.27325	-0.863473092413
99.597659	-3.236664	-0.743810050801
99.571225	-3.200077	-0.236017732105
99.544792	-3.16349	0.248988077774
99.51836	-3.126902	0.345727139898
99.491931	-3.090313	-0.00614748865306
99.465504	-3.053723	-0.30584350584
99.439078	-3.017133	-0.378679640094
99.412654	-2.980542	-0.316358987214
99.386231	-2.943951	-0.375137172787
99.359811	-2.907359	-0.0972028437653
99.333392	-2.870766	0.263843151726
99.306974	-2.834173	0.565952236206
100.136401	-3.905307	0.541419030236
100.109926	-3.868736	0.218339368426
100.083454	-3.832164	-0.133117283446
100.056984	-3.795592	-0.388600796355
100.030516	-3.759018	-0.800590185118
100.00405	-3.722444	-0.938056302186
99.977586	-3.685868	-0.748812060944
99.951125	-3.649292	-0.666042915428
99.924666	-3.612715	-0.838946279107
99.898209	-3.576138	-1.22786245118
99.871753	-3.539559	-1.69130866598
99.8453	-3.50298	-1.62316934154
99.818849	-3.4664	-1.56261485375
99.7924	-3.42982	-1.63512140021
99.765953	-3.393238	-1.37197874876
99.739508	-3.356656	-1.1985147461
99.713065	-3.320073	-1.12170050502
99.686624	-3.283489	-0.783629182385
99.660185	-3.246905	-0.659809900122
99.633747	-3.21032	-0.612419439823
99.607312	-3.173734	-0.291380168272
99.580878	-3.137147	0.0278845604376
99.554446	-3.10056	0.0936379094829
99.528016	-3.063972	-0.113020634183
99.501588	-3.027384	-0.276993247113
99.475162	-2.990795	-0.302300813516
99.448737	-2.954205	-0.281386690605
99.422314	-2.917614	-0.342315159175
99.395893	-2.881023	-0.121435022787
99.369473	-2.844431	0.239268753579
99.343055	-2.807839	0.561465903019
100.172499	-3.878943	0.684356787988
100.146024	-3.842373	0.368119111282
100.119551	-3.805802	0.00363353193497
100.09308	-3.76923	-0.403575172134
100.066611	-3.732658	-0.790592562877
100.040145	-3.696084	-0.897007800952
100.013681	-3.65951	-0.700241042237
99.987219	-3.622935	-0.510378282957
99.960759	-3.586359	-0.541103560324
99.934301	-3.549783	-0.764192698358
99.907845	-3.513205	-0.986056796812
99.881391	-3.476627	-1.08049223896
99.85494	-3.440048	-1.08821291468
99.82849	-3.403468	-1.02186083515
99.802043	-3.366888	-0.837276362422
99.775597	-3.330306	-0.597521196827
99.749153	-3.293724	-0.384857406212
99.722711	-3.257142	-0.250229285166
99.696271	-3.220558	-0.177995692918
99.669833	-3.183974	-0.176006920091
99.643397	-3.147389	-0.279110746896
99.616963	-3.110804	-0.419876760156
99.590531	-3.074217	-0.438804814794
99.5641	-3.03763	-0.290001141762
99.537671	-3.001043	-0.137980331831
99.511244	-2.964455	-0.0798609339532
99.484818	-2.927866	-0.110040214835
99.458395	-2.891276	-0.124351618444
99.431973	-2.854686	-0.0271772897049
99.405553	-2.818095	0.14417060975
99.379134	-2.781503	0.265833130336
100.208595	-3.852578	0.877087454643
100.182119	-3.816009	0.548821368228
100.155646	-3.779439	0.195211450972
100.129174	-3.742868	-0.369620543503
100.102705	-3.706296	-0.972545038446
100.076238	-3.669724	-1.0936672471
100.049773	-3.633151	-0.604862219967
100.02331	-3.596577	-0.149818843105
99.99685	-3.560002	-0.0971082702406
99.970391	-3.523426	-0.319870288155
99.943935	-3.48685	-0.422458568634
99.917481	-3.450272	-0.586009247543
99.891028	-3.413694	-0.641147050572
99.864578	-3.377116	-0.514220950661
99.83813	-3.340536	-0.331017667213
99.811684	-3.303956	0.0320045264694
99.785239	-3.267375	0.429048778446
99.758797	-3.230793	0.309630565753
99.732356	-3.19421	0.335166070375
99.705918	-3.157627	0.359591660673
99.679481	-3.121043	-0.21665042427
99.653046	-3.084459	-0.927501343369
99.626613	-3.047873	-1.09472139931
99.600182	-3.011287	-0.447430021283
99.573752	-2.974701	0.0767180101246
99.547324	-2.938113	0.203885880263
99.520898	-2.901525	0.0373456417309
99.494474	-2.864936	-0.0282815772352
99.468051	-2.828347	0.00168787649289
99.44163	-2.791757	0.0728259967271
99.415211	-2.755167	0.12105800243
100.244689	-3.826211	0.841163583292
100.218212	-3.789643	0.567296483933
100.191738	-3.753074	0.279568238883
100.165266	-3.716504	-0.295825130491
100.138796	-3.679934	-0.862988321419
100.112329	-3.643362	-0.952523348069
100.085863	-3.60679	-0.456287293846
100.0594	-3.570217	0.0616319826736
100.032939	-3.533643	0.136224239778
100.00648	-3.497068	-0.0791898640973
99.980023	-3.460493	-0.13753819782
99.953568	-3.423917	-0.317916500688
99.927115	-3.38734	-0.384798616997
99.900664	-3.350762	-0.254217558343
99.874215	-3.314183	-0.0675006498129
99.847768	-3.277604	0.31009518847
99.821323	-3.241024	0.713874776883
99.79488	-3.204443	0.560131181464
99.768439	-3.167861	0.539394416407
99.742	-3.131279	0.491113905191
99.715563	-3.094696	-0.110990306162
99.689127	-3.058112	-0.837763967407
99.662693	-3.021528	-1.02150212067
99.636261	-2.984943	-0.446401256867
99.609831	-2.948357	0.0921049447691
99.583403	-2.911771	0.224098668858
99.556976	-2.875183	0.0542176622638
99.530551	-2.838596	-0.00520788950773
99.504128	-2.802007	7.42854153333e-05
99.477706	-2.765418	0.0257923251065
99.451286	-2.728828	0.0438943462952
100.280781	-3.799842	0.539219575566
100.254304	-3.763275	0.354840321501
100.227829	-3.726708	0.109064659114
100.201356	-3.690139	-0.211715695832
100.174886	-3.653569	-0.493319136133
100.148418	-3.616999	-0.523068718846
100.121952	-3.580428	-0.281132416188
100.095488	-3.543856	-0.01202470049
100.069026	-3.507283	0.0538661563675
100.042566	-3.470709	-0.0567331715596
100.016109	-3.434135	-0.186821567
99.989653	-3.397559	-0.296344086407
99.9632	-3.360983	-0.338636638067
99.936748	-3.324407	-0.270181911103
99.910299	-3.287829	-0.0706116766401
99.883851	-3.251251	0.219912701615
99.857406	-3.214671	0.449418156251
99.830962	-3.178091	0.488262487199
99.80452	-3.141511	0.453836100501
99.77808	-3.10493	0.323959828295
99.751642	-3.068347	0.029096025589
99.725206	-3.031765	-0.279550175055
99.698772	-2.995181	-0.401628484117
99.672339	-2.958597	-0.323376369397
99.645909	-2.922012	-0.186639135998
99.61948	-2.885426	-0.0900429672586
99.593052	-2.84884	-0.0503138758353
99.566627	-2.812253	-0.024335165657
99.540203	-2.775666	-0.010438422175
99.513781	-2.739078	-0.0103081094848
99.48736	-2.702489	-0.00878765425438
100.316871	-3.773473	0.248316469083
100.290393	-3.736907	0.157846362998
100.263918	-3.70034	0.0111555446758
100.237444	-3.663773	-0.125062412543
100.210973	-3.627204	-0.300309145275
100.184505	-3.590635	-0.315596102443
100.158038	-3.554064	-0.104118448308
100.131574	-3.517493	0.101283609519
100.105111	-3.480921	0.0988977064399
100.078651	-3.444349	-0.062458251672
100.052193	-3.407775	-0.269337079643
100.025737	-3.371201	-0.350062206646
99.999282	-3.334626	-0.393705965864
99.97283	-3.29805	-0.420088597824
99.94638	-3.261473	-0.184924629661
99.919932	-3.224896	0.10546547543
99.893486	-3.188318	0.345824386346
99.867042	-3.151739	0.368822332218
99.840599	-3.115159	0.358151845319
99.814159	-3.078579	0.302599827637
99.78772	-3.041997	0.174594533158
99.761284	-3.005416	0.137152399691
99.734849	-2.968833	0.0572648571832
99.708416	-2.93225	-0.206402737511
99.681984	-2.895666	-0.418955957317
99.655555	-2.859081	-0.33772949379
99.629127	-2.822496	-0.14885455999
99.602701	-2.78591	-0.0349883370684
99.576276	-2.749323	-0.0125761460538
99.549853	-2.712736	-0.0418087757098
99.523432	-2.676148	-0.0771967204103
100.352959	-3.747102	0.130533892153
100.32648	-3.710537	0.125965314698
100.300004	-3.673971	0.0712247940696
100.273531	-3.637405	0.0312145099322
100.247059	-3.600837	-0.078341177827
100.22059	-3.564269	-0.0807639433108
100.194122	-3.5277	0.0894760709166
100.167657	-3.49113	0.236308824559
100.141194	-3.454559	0.187893521117
100.114733	-3.417987	-0.00649278485034
100.088275	-3.381414	-0.260123368945
100.061818	-3.344841	-0.341092023839
100.035363	-3.308267	-0.399979308912
100.008911	-3.271692	-0.451101432705
99.98246	-3.235116	-0.282786428965
99.956011	-3.19854	-0.048546152257
99.929565	-3.161963	0.170104704422
99.90312	-3.125385	0.202654429509
99.876677	-3.088806	0.236989066539
99.850236	-3.052226	0.248090655742
99.823797	-3.015646	0.222615481721
99.797359	-2.979065	0.262213423342
99.770924	-2.942484	0.192006615322
99.74449	-2.905901	-0.113923057526
99.718058	-2.869318	-0.385202177083
99.691628	-2.832734	-0.344744407929
99.665199	-2.79615	-0.167472586774
99.638773	-2.759565	-0.0533576284341
99.612348	-2.722979	-0.0234291712958
99.585924	-2.686393	-0.0449342887711
99.559502	-2.649806	-0.067939909005
100.389044	-3.72073	0.18919322509
100.362566	-3.684166	0.287312967544
100.336089	-3.647601	0.315885099712
100.309615	-3.611036	0.275843113777
100.283143	-3.574469	0.222517610357
100.256673	-3.537902	0.229213811346
100.230205	-3.501334	0.306332018975
100.203739	-3.464765	0.367902945144
100.177276	-3.428195	0.302740622524
100.150814	-3.391624	0.119907547489
100.124355	-3.355052	-0.0839886001257
100.097898	-3.31848	-0.230947457667
100.071442	-3.281907	-0.34106074212
100.044989	-3.245333	-0.403022958838
100.018538	-3.208758	-0.354101789835
99.992089	-3.172183	-0.255143530243
99.965641	-3.135606	-0.145757713025
99.939196	-3.099029	-0.0136960375929
99.912752	-3.062452	0.103423214216
99.886311	-3.025873	0.16893529742
99.859871	-2.989294	0.185904383597
99.833433	-2.952714	0.170254737398
99.806997	-2.916133	0.0933691868288
99.780563	-2.879552	-0.0435855880488
99.75413	-2.842969	-0.162373782464
99.727699	-2.806387	-0.172998074815
99.70127	-2.769803	-0.110638867636
99.674843	-2.733219	-0.0564520552146
99.648417	-2.696634	-0.0258605043726
99.621993	-2.660048	-0.020334665979
99.595571	-2.623462	-0.0182424219919
100.425128	-3.694357	0.290376690458
100.398649	-3.657794	0.53690848281
100.372172	-3.62123	0.639998202878
100.345697	-3.584665	0.539918645374
100.319224	-3.5481	0.476154985384
100.292754	-3.511533	0.47062574722
100.266285	-3.474966	0.526528218064
100.239819	-3.438398	0.616343734217
100.213355	-3.401829	0.505881842878
100.186893	-3.36526	0.262898325122
100.160433	-3.328689	0.0323400269974
100.133975	-3.292118	-0.120985119861
100.107519	-3.255545	-0.279372236557
100.081066	-3.218972	-0.450753792228
100.054614	-3.182399	-0.417336317468
100.028164	-3.145824	-0.429851337472
100.001716	-3.109249	-0.470462151222
99.97527	-3.072673	-0.193825328138
99.948826	-3.036096	0.0239150706707
99.922384	-2.999518	0.133784721504
99.895944	-2.96294	0.160133144311
99.869505	-2.926361	0.112443406143
99.843068	-2.889781	0.0470973850769
99.816634	-2.8532	0.0226170356614
99.7902	-2.816619	-0.0326982283235
99.763769	-2.780037	-0.0402898847484
99.73734	-2.743455	-0.0177907772942
99.710912	-2.706871	-0.0231075152028
99.684485	-2.670287	0.011485176544
99.658061	-2.633703	0.0241565548343
99.631638	-2.597117	0.0012261601735
100.46121	-3.667982	0.432755083827
100.43473	-3.63142	0.729948605832
100.408253	-3.594857	0.856887981876
100.381777	-3.558294	0.742978075728
100.355304	-3.521729	0.676334807062
100.328833	-3.485164	0.658145839543
100.302364	-3.448598	0.690513226332
100.275897	-3.412031	0.763745992724
100.249433	-3.375463	0.640443442285
100.22297	-3.338894	0.400354505853
100.19651	-3.302324	0.1781003343
100.170051	-3.265754	0.0290032434995
100.143595	-3.229183	-0.13466322489
100.11714	-3.192611	-0.315761980741
100.090688	-3.156038	-0.324941347272
100.064238	-3.119464	-0.389295172967
100.037789	-3.08289	-0.493038614058
100.011343	-3.046315	-0.185837681676
99.984898	-3.009739	0.0451771495549
99.958455	-2.973162	0.164784644374
99.932014	-2.936585	0.199033336619
99.905575	-2.900007	0.16146588141
99.879138	-2.863428	0.120962716736
99.852703	-2.826848	0.135216206878
99.826269	-2.790268	0.11104965932
99.799837	-2.753687	0.109712090111
99.773407	-2.717105	0.119555534013
99.746979	-2.680523	0.108617670155
99.720552	-2.64394	0.121448248679
99.694127	-2.607356	0.120728898706
