99.729445	-3.861409	-1.38797508516
99.71357	-3.839459	-1.64294931009
99.697697	-3.817509	-1.87615637874
99.681824	-3.795559	-1.94452914349
99.665952	-3.773608	-1.95438684345
99.650081	-3.751658	-1.93340747629
99.634211	-3.729707	-1.85522811268
99.618341	-3.707755	-1.88106348669
99.602472	-3.685804	-2.75394873569
99.586604	-3.663852	-3.89059699673
99.570736	-3.6419	-5.20886194539
99.55487	-3.619948	-6.82374622261
99.539003	-3.597995	-7.20176325895
99.523138	-3.576042	-5.91721292453
99.507274	-3.554089	-4.92427301224
99.49141	-3.532136	-4.19307693306
99.475546	-3.510182	-3.66085434232
99.459684	-3.488228	-3.71166740926
99.443822	-3.466274	-4.23221413293
99.427961	-3.44432	-4.94176823983
99.412101	-3.422365	-5.95407700295
99.396241	-3.40041	-7.15472342013
99.380382	-3.378455	-6.01020637142
99.364523	-3.3565	-3.30926554556
99.348666	-3.334544	-0.801889820903
99.332809	-3.312588	1.68578136966
99.316952	-3.290632	3.60945501474
99.301096	-3.268676	3.36745416498
99.285241	-3.24672	3.12240011194
99.269387	-3.224763	3.33681654717
99.253533	-3.202806	3.90346659158
99.23768	-3.180849	3.16810870125
99.221827	-3.158891	1.37135513327
99.205975	-3.136934	-0.248692861261
99.190124	-3.114976	-1.84690051369
99.174273	-3.093018	-3.56113416937
99.158423	-3.071059	-3.95236174322
99.142574	-3.049101	-3.39818425847
99.126725	-3.027142	-3.07502187695
99.110876	-3.005183	-2.9341988329
99.925781	-4.087023	-3.60744725615
99.909898	-4.065077	-2.75042312495
99.894016	-4.043131	-2.14084540637
99.878134	-4.021184	-1.67055647072
99.862253	-3.999237	-1.32474827485
99.846373	-3.97729	-1.08027620508
99.830494	-3.955342	-0.873301858283
99.814616	-3.933394	-0.706304482637
99.798738	-3.911446	-0.595502522628
99.782861	-3.889497	-0.660343175611
99.766985	-3.867549	-0.903668012522
99.75111	-3.8456	-1.19377876984
99.735235	-3.82365	-1.50455353531
99.719362	-3.801701	-1.7820261591
99.703489	-3.779751	-1.87551325926
99.687617	-3.757801	-1.89417382812
99.671745	-3.73585	-1.87243587662
99.655874	-3.7139	-1.79892909419
99.640004	-3.691949	-1.85837326028
99.624135	-3.669998	-2.64444219402
99.608267	-3.648046	-3.71417334798
99.592399	-3.626094	-4.95283563891
99.576532	-3.604142	-6.38898487856
99.560666	-3.58219	-6.68386785996
99.5448	-3.560238	-5.57560820254
99.528935	-3.538285	-4.61496427745
99.513071	-3.516332	-3.88306321363
99.497208	-3.494379	-3.30961080425
99.481345	-3.472425	-3.37886310876
99.465483	-3.450471	-3.92777614389
99.449621	-3.428517	-4.64475152832
99.433761	-3.406563	-5.65370083634
99.417901	-3.384609	-6.85317792507
99.402041	-3.362654	-5.72017123206
99.386183	-3.340699	-3.06536609281
99.370325	-3.318744	-0.601968712628
99.354467	-3.296788	1.82429316106
99.338611	-3.274832	3.64577178171
99.322755	-3.252876	3.43556194142
99.306899	-3.23092	3.16385869152
99.291045	-3.208964	3.33371849308
99.275191	-3.187007	3.82855395288
99.259337	-3.16505	3.11735627998
99.243484	-3.143093	1.43109268143
99.227632	-3.121136	-0.0919886856944
99.21178	-3.099178	-1.56212398273
99.195929	-3.077221	-3.02424412632
99.180079	-3.055263	-3.40070099829
99.164229	-3.033305	-2.96153746283
99.14838	-3.011346	-2.66400043367
99.132532	-2.989388	-2.53301933483
99.116684	-2.967429	-2.48592107627
99.947449	-4.07121	-2.51449028238
99.931565	-4.049264	-2.04053438566
99.915683	-4.027318	-1.62216466181
99.899801	-4.005372	-1.27107198264
99.88392	-3.983425	-0.980168335773
99.868039	-3.961478	-0.736072517285
99.85216	-3.939531	-0.523575455318
99.836281	-3.917583	-0.357207650337
99.820403	-3.895635	-0.285700177137
99.804526	-3.873687	-0.379340557671
99.78865	-3.851739	-0.6372542251
99.772774	-3.82979	-0.982103992673
99.7569	-3.807841	-1.33799347953
99.741026	-3.785892	-1.62810334408
99.725153	-3.763943	-1.79619644608
99.70928	-3.741993	-1.86875778592
99.693408	-3.720043	-1.89569524402
99.677537	-3.698092	-1.93590532805
99.661667	-3.676142	-2.13851344218
99.645798	-3.654191	-2.65042431139
99.629929	-3.63224	-3.3843373923
99.614061	-3.610289	-4.21035329998
99.598194	-3.588337	-4.92814513797
99.582327	-3.566385	-5.07808241923
99.566461	-3.544433	-4.62714825412
99.550596	-3.52248	-4.02678809436
99.534732	-3.500528	-3.50290485661
99.518868	-3.478575	-3.16283500986
99.503005	-3.456622	-3.16776881971
99.487143	-3.434668	-3.48245236905
99.471281	-3.412714	-3.95711694386
99.45542	-3.390761	-4.48944373082
99.43956	-3.368806	-4.71808244742
99.4237	-3.346852	-3.92975574948
99.407841	-3.324897	-2.29593778187
99.391983	-3.302942	-0.477577789551
99.376126	-3.280987	1.21229594922
99.360269	-3.259032	2.34223586976
99.344412	-3.237076	2.64995086296
99.328557	-3.21512	2.62395005741
99.312702	-3.193164	2.63135178828
99.296847	-3.171208	2.57576674306
99.280994	-3.149252	2.03471075181
99.265141	-3.127295	1.05716074484
99.249288	-3.105338	0.0101905939812
99.233436	-3.083381	-0.983496305714
99.217585	-3.061423	-1.80022950955
99.201734	-3.039466	-2.16158031454
99.185884	-3.017508	-2.14192982335
99.170035	-2.99555	-2.04911968251
99.154186	-2.973591	-1.98957123807
99.138338	-2.951633	-1.93612214851
99.969115	-4.055396	-1.37866694006
99.953231	-4.03345	-1.22269717965
99.937349	-4.011505	-1.03342621058
99.921466	-3.989559	-0.826783613944
99.905585	-3.967612	-0.609484813434
99.889705	-3.945666	-0.383917350614
99.873825	-3.923719	-0.154879849465
99.857946	-3.901772	0.0476330576428
99.842068	-3.879824	0.143412307942
99.826191	-3.857877	0.0272206345574
99.810314	-3.835929	-0.312821874067
99.794438	-3.81398	-0.768666780711
99.778563	-3.792032	-1.22182853074
99.762689	-3.770083	-1.57934092534
99.746816	-3.748134	-1.7898946231
99.730943	-3.726184	-1.88337229494
99.715071	-3.704235	-1.93315133196
99.6992	-3.682285	-2.01063888226
99.683329	-3.660334	-2.19271974662
99.667459	-3.638384	-2.52338959047
99.651591	-3.616433	-2.95794776487
99.635722	-3.594482	-3.39661400577
99.619855	-3.572531	-3.71200162145
99.603988	-3.550579	-3.78398042312
99.588122	-3.528627	-3.61293596772
99.572256	-3.506675	-3.30610978928
99.556392	-3.484723	-2.9814378557
99.540528	-3.46277	-2.75601449649
99.524665	-3.440818	-2.72791341982
99.508802	-3.418864	-2.88098256248
99.49294	-3.396911	-3.09837001419
99.477079	-3.374958	-3.2344469684
99.461218	-3.353004	-3.09383013372
99.445359	-3.33105	-2.49807849728
99.429499	-3.309095	-1.49427524161
99.413641	-3.287141	-0.313292505496
99.397783	-3.265186	0.785882463715
99.381926	-3.243231	1.54951156457
99.366069	-3.221276	1.8720554893
99.350214	-3.19932	1.88501461103
99.334358	-3.177364	1.74850817203
99.318504	-3.155408	1.49505687275
99.30265	-3.133452	1.09696915227
99.286796	-3.111496	0.590160143539
99.270944	-3.089539	0.0538515422861
99.255092	-3.067582	-0.442873785612
99.23924	-3.045625	-0.842179738868
99.223389	-3.023668	-1.11418324739
99.207539	-3.00171	-1.27799974754
99.191689	-2.979752	-1.36818586019
99.17584	-2.957795	-1.41064404753
99.159992	-2.935836	-1.41677102498
99.990781	-4.039581	-0.31510853508
99.974897	-4.017636	-0.432534788937
99.959014	-3.995691	-0.46099239182
99.943131	-3.973745	-0.395468016919
99.92725	-3.951799	-0.256515188731
99.911369	-3.929853	-0.0555932274913
99.895489	-3.907907	0.205220670343
99.87961	-3.88596	0.509501576878
99.863732	-3.864013	0.743002695809
99.847854	-3.842065	0.620914210375
99.831977	-3.820118	0.084820855263
99.816101	-3.79817	-0.575231981651
99.800226	-3.776222	-1.1990650787
99.784351	-3.754273	-1.67418933525
99.768478	-3.732324	-1.88572485528
99.752605	-3.710375	-1.9296544478
99.736733	-3.688426	-1.94736958413
99.720861	-3.666476	-1.99310170414
99.70499	-3.644526	-2.10349731418
99.68912	-3.622576	-2.29809668801
99.673251	-3.600626	-2.51873074844
99.657383	-3.578675	-2.67205324129
99.641515	-3.556724	-2.7085334829
99.625648	-3.534773	-2.7063242758
99.609782	-3.512822	-2.70046107589
99.593916	-3.49087	-2.58165404341
99.578051	-3.468918	-2.35741214641
99.562187	-3.446966	-2.14259759192
99.546323	-3.425013	-2.09343902129
99.530461	-3.40306	-2.19214922796
99.514598	-3.381107	-2.25713872748
99.498737	-3.359154	-2.15542835058
99.482876	-3.337201	-1.85607935338
99.467016	-3.315247	-1.43048649678
99.451157	-3.293293	-0.842141534397
99.435298	-3.271339	-0.104529433461
99.41944	-3.249384	0.623463661727
99.403582	-3.227429	1.14012469796
99.387726	-3.205474	1.31611843692
99.37187	-3.183519	1.21021833111
99.356014	-3.161564	0.911100793438
99.340159	-3.139608	0.516690916215
99.324305	-3.117652	0.240569884103
99.308451	-3.095696	0.132607732998
99.292598	-3.07374	0.0516803427375
99.276746	-3.051783	0.00290575424761
99.260894	-3.029827	-0.0163998382328
99.245043	-3.00787	-0.18175120582
99.229193	-2.985912	-0.492991638596
99.213343	-2.963955	-0.734702480563
99.197493	-2.941997	-0.866272523385
99.181645	-2.920039	-0.932012228327
100.012446	-4.023766	0.653203886575
99.996562	-4.001821	0.226312714799
99.980678	-3.979876	0.0123092532188
99.964796	-3.957931	-0.0377893844364
99.948914	-3.935986	0.0289714330579
99.933033	-3.91404	0.196381809
99.917153	-3.892094	0.479428021536
99.901273	-3.870147	0.916496123339
99.885395	-3.848201	1.49974510454
99.869517	-3.826254	1.43166222476
99.85364	-3.804306	0.464249383246
99.837763	-3.782359	-0.435607871673
99.821888	-3.760411	-1.25881036587
99.806013	-3.738463	-1.95906345694
99.790139	-3.716514	-2.05000776909
99.774266	-3.694566	-1.96491974573
99.758394	-3.672617	-1.92820348909
99.742522	-3.650667	-1.92121611246
99.726651	-3.628718	-1.94005330596
99.710781	-3.606768	-2.05956732658
99.694911	-3.584818	-2.15145464313
99.679043	-3.562868	-2.10450746835
99.663175	-3.540917	-1.85079194296
99.647307	-3.518966	-1.73752271847
99.631441	-3.497015	-1.96573721088
99.615575	-3.475064	-1.9721840447
99.59971	-3.453112	-1.75720137767
99.583845	-3.43116	-1.41126573505
99.567981	-3.409208	-1.36311120829
99.552118	-3.387256	-1.55328983441
99.536256	-3.365303	-1.56821564257
99.520394	-3.34335	-1.32142698601
99.504533	-3.321397	-0.827620961819
99.488673	-3.299443	-0.64038687409
99.472813	-3.27749	-0.377952909305
99.456954	-3.255536	0.0786975965794
99.441096	-3.233582	0.607343094215
99.425238	-3.211627	1.00824252138
99.409381	-3.189673	0.963283085148
99.393525	-3.167718	0.691823421445
99.377669	-3.145763	0.220303887564
99.361814	-3.123808	-0.452804845941
99.34596	-3.101852	-0.628723031857
99.330106	-3.079896	-0.267117880326
99.314252	-3.05794	0.0135882642751
99.2984	-3.035984	0.321913250365
99.282548	-3.014027	0.771202909199
99.266697	-2.992071	0.688306524071
99.250846	-2.970114	0.11847156659
99.234996	-2.948157	-0.235768869345
99.219146	-2.926199	-0.40940675898
99.203297	-2.904242	-0.487492810916
100.03411	-4.007951	1.15579096809
100.018226	-3.986006	0.6159836011
100.002342	-3.964062	0.320389266685
99.986459	-3.942117	0.200371930461
99.970577	-3.920172	0.206884460478
99.954696	-3.898226	0.323708105588
99.938815	-3.87628	0.569290177577
99.922936	-3.854334	0.988432359492
99.907057	-3.832388	1.60395610024
99.891179	-3.810441	1.54350233633
99.875301	-3.788494	0.524625866906
99.859425	-3.766547	-0.381790277888
99.843549	-3.7446	-1.20645523536
99.827674	-3.722652	-1.93433268783
99.8118	-3.700704	-1.99906600825
99.795927	-3.678756	-1.90832751379
99.780054	-3.656807	-1.87316614774
99.764182	-3.634858	-1.85902737357
99.748311	-3.612909	-1.85093259693
99.73244	-3.590959	-1.91011436532
99.716571	-3.56901	-1.92445520059
99.700702	-3.54706	-1.80234437409
99.684833	-3.525109	-1.50777504909
99.668966	-3.503159	-1.38201991672
99.653099	-3.481208	-1.57574734399
99.637233	-3.459257	-1.59414543584
99.621367	-3.437306	-1.38850033476
99.605503	-3.415354	-0.99331521139
99.589639	-3.393402	-0.945612651094
99.573775	-3.37145	-1.14810341513
99.557913	-3.349498	-1.1378049491
99.542051	-3.327545	-0.890730482902
99.52619	-3.305593	-0.492150622713
99.510329	-3.28364	-0.319306155827
99.494469	-3.261686	-0.149590421702
99.47861	-3.239733	0.159003759432
99.462751	-3.217779	0.536669975392
99.446893	-3.195825	0.814932339103
99.431036	-3.173871	0.677159822395
99.415179	-3.151916	0.352444716314
99.399323	-3.129961	-0.135668927848
99.383468	-3.108006	-0.791010073616
99.367613	-3.086051	-0.899946787945
99.351759	-3.064096	-0.444396961847
99.335906	-3.04214	-0.049752604245
99.320053	-3.020184	0.359926276974
99.304201	-2.998228	0.849714694857
99.288349	-2.976272	0.837751747981
99.272498	-2.954315	0.375792196226
99.256648	-2.932358	0.0604736104074
99.240798	-2.910401	-0.103175315385
99.224949	-2.888444	-0.195665473467
100.055773	-3.992134	1.05366757839
100.039889	-3.970191	0.710320545915
100.024005	-3.948246	0.451057858854
100.008122	-3.926302	0.306151237336
99.992239	-3.904357	0.263669932908
99.976358	-3.882412	0.31518020685
99.960477	-3.860467	0.459589786952
99.944597	-3.838521	0.689606209501
99.928718	-3.816575	0.900786724334
99.91284	-3.794629	0.758564670686
99.896962	-3.772682	0.216456159621
99.881086	-3.750735	-0.420890348396
99.86521	-3.728788	-1.02107716062
99.849334	-3.706841	-1.48466187204
99.83346	-3.684893	-1.69114035169
99.817586	-3.662945	-1.75201804776
99.801713	-3.640997	-1.79028836207
99.785841	-3.619048	-1.82342627605
99.76997	-3.597099	-1.84771380498
99.754099	-3.57515	-1.8625636427
99.738229	-3.553201	-1.83592775941
99.72236	-3.531251	-1.73519903458
99.706491	-3.509301	-1.58260011369
99.690624	-3.487351	-1.49886641242
99.674757	-3.465401	-1.50220219685
99.65889	-3.44345	-1.4566508647
99.643025	-3.421499	-1.30319471722
99.62716	-3.399548	-1.09952829747
99.611295	-3.377596	-1.01443931794
99.595432	-3.355645	-1.02136027536
99.579569	-3.333693	-0.957226579937
99.563707	-3.31174	-0.775683340756
99.547845	-3.289788	-0.534214807195
99.531984	-3.267835	-0.323658974802
99.516124	-3.245882	-0.113414584582
99.500265	-3.223929	0.136691098093
99.484406	-3.201976	0.382492873347
99.468548	-3.180022	0.508594450359
99.45269	-3.158068	0.421525993916
99.436833	-3.136114	0.167136781241
99.420977	-3.114159	-0.188580460747
99.405122	-3.092205	-0.530077213648
99.389267	-3.07025	-0.606187946347
99.373412	-3.048295	-0.4063854683
99.357559	-3.026339	-0.123474311286
99.341705	-3.004384	0.175357118344
99.325853	-2.982428	0.430074747212
99.310001	-2.960472	0.473779364441
99.29415	-2.938516	0.329470954066
99.278299	-2.916559	0.177722330255
99.262449	-2.894602	0.0757053489913
99.2466	-2.872645	-0.00875501254483
100.077436	-3.976318	0.861704438177
100.061551	-3.954374	0.657090172298
100.045667	-3.932431	0.455684602296
100.029784	-3.910486	0.30477775747
100.013901	-3.888542	0.220902341215
99.998019	-3.866597	0.202057847302
99.982138	-3.844652	0.229404912462
99.966258	-3.822707	0.270240519679
99.950379	-3.800761	0.263365707729
99.9345	-3.778815	0.127591761257
99.918623	-3.756869	-0.154402369568
99.902746	-3.734923	-0.516930896459
99.886869	-3.712976	-0.885993485332
99.870994	-3.691029	-1.19893892417
99.855119	-3.669082	-1.42141005861
99.839245	-3.647134	-1.5764742983
99.823372	-3.625186	-1.70102759278
99.8075	-3.603238	-1.80061008616
99.791628	-3.581289	-1.8567571805
99.775757	-3.559341	-1.86059851386
99.759887	-3.537392	-1.82402705816
99.744018	-3.515442	-1.7606003257
99.728149	-3.493493	-1.68473867403
99.712281	-3.471543	-1.61313664274
99.696413	-3.449593	-1.54299409348
99.680547	-3.427642	-1.45657318387
99.664681	-3.405692	-1.34585207204
99.648816	-3.383741	-1.22452609897
99.632951	-3.36179	-1.11847219566
99.617088	-3.339838	-1.02631616044
99.601224	-3.317887	-0.920414776964
99.585362	-3.295935	-0.781002255926
99.5695	-3.273983	-0.606160004253
99.553639	-3.25203	-0.398169689856
99.537779	-3.230078	-0.162374953843
99.521919	-3.208125	0.079704332867
99.50606	-3.186172	0.279379162945
99.490202	-3.164218	0.360659157443
99.474344	-3.142265	0.282372328401
99.458487	-3.120311	0.0838618133653
99.44263	-3.098357	-0.162605899023
99.426774	-3.076402	-0.366460801326
99.410919	-3.054448	-0.433376001483
99.395065	-3.032493	-0.355285699234
99.379211	-3.010538	-0.203878838832
99.363357	-2.988583	-0.041034486869
99.347505	-2.966627	0.0948967885271
99.331652	-2.944672	0.17579455033
99.315801	-2.922716	0.204164379472
99.29995	-2.900759	0.209422223809
99.2841	-2.878803	0.206593593904
99.26825	-2.856847	0.174079261618
100.099098	-3.960501	0.719378220033
100.083213	-3.938558	0.57420611593
100.067328	-3.916614	0.399134450458
100.051445	-3.894671	0.230619146593
100.035562	-3.872726	0.106949218434
100.01968	-3.850782	0.0332262967477
100.003799	-3.828837	-0.0354220600827
99.987918	-3.806892	-0.141013133418
99.972039	-3.784947	-0.281739646123
99.95616	-3.763002	-0.386752503883
99.940282	-3.741056	-0.476969173791
99.924405	-3.71911	-0.623277755454
99.908528	-3.697163	-0.808075821628
99.892653	-3.675217	-1.00354019689
99.876778	-3.65327	-1.20873911338
99.860904	-3.631322	-1.41649085857
99.84503	-3.609375	-1.62138212993
99.829158	-3.587427	-1.80790761658
99.813286	-3.565479	-1.90449071728
99.797415	-3.54353	-1.88196515809
99.781544	-3.521582	-1.82804851416
99.765674	-3.499633	-1.7960844923
99.749805	-3.477684	-1.78255594078
99.733937	-3.455734	-1.72799926253
99.71807	-3.433784	-1.60688803438
99.702203	-3.411834	-1.49173547482
99.686337	-3.389884	-1.41673779262
99.670471	-3.367934	-1.34939765709
99.654607	-3.345983	-1.21903579344
99.638742	-3.324032	-1.05746463598
99.622879	-3.30208	-0.927724225551
99.607016	-3.280129	-0.831017732681
99.591155	-3.258177	-0.720091599967
99.575293	-3.236225	-0.512667663958
99.559433	-3.214273	-0.237694595532
99.543573	-3.19232	0.0346914708512
99.527713	-3.170367	0.264323233695
99.511855	-3.148414	0.352335353823
99.495997	-3.126461	0.243786010405
99.480139	-3.104508	0.0483853554939
99.464283	-3.082554	-0.155017419853
99.448426	-3.0606	-0.317125752376
99.432571	-3.038645	-0.382225065968
99.416716	-3.016691	-0.349018991415
99.400862	-2.994736	-0.282314803724
99.385008	-2.972781	-0.231837718518
99.369155	-2.950826	-0.189453732559
99.353303	-2.928871	-0.0748596992782
99.337451	-2.906915	0.0839945840468
99.3216	-2.884959	0.222832802286
99.30575	-2.863003	0.340312355822
99.2899	-2.841047	0.390514081642
100.120759	-3.944683	0.634216199191
100.104873	-3.922741	0.513654907301
100.088989	-3.900798	0.336030356651
100.073105	-3.878854	0.120181402104
100.057222	-3.85691	-0.0488148076476
100.04134	-3.834966	-0.135507474505
100.025458	-3.813022	-0.264304784745
100.009578	-3.791078	-0.482616224832
99.993698	-3.769133	-0.797284130681
99.977819	-3.747187	-0.835058227043
99.961941	-3.725242	-0.72069862609
99.946063	-3.703296	-0.703278718214
99.930187	-3.68135	-0.74343848548
99.914311	-3.659404	-0.820596350486
99.898436	-3.637457	-1.01298355048
99.882561	-3.61551	-1.25842852959
99.866688	-3.593563	-1.52967318517
99.850815	-3.571616	-1.8448239296
99.834943	-3.549668	-2.0119881564
99.819071	-3.52772	-1.88036915778
99.8032	-3.505771	-1.78749450883
99.787331	-3.483823	-1.78188535365
99.771461	-3.461874	-1.86315866983
99.755593	-3.439925	-1.85823087194
99.739725	-3.417976	-1.62711568228
99.723858	-3.396026	-1.47611951504
99.707992	-3.374076	-1.44357479052
99.692126	-3.352126	-1.48959629071
99.676261	-3.330175	-1.29152960684
99.660397	-3.308225	-1.04021291031
99.644533	-3.286274	-0.897237951986
99.62867	-3.264322	-0.857460361071
99.612808	-3.242371	-0.880691813656
99.596947	-3.220419	-0.636109987065
99.581086	-3.198467	-0.305803752157
99.565225	-3.176515	-0.00680282285444
99.549366	-3.154563	0.300974501631
99.533507	-3.13261	0.460680173201
99.517649	-3.110657	0.230296453014
99.501791	-3.088704	0.0128437082243
99.485934	-3.06675	-0.174145015854
99.470078	-3.044797	-0.341746605634
99.454222	-3.022843	-0.404250976721
99.438367	-3.000888	-0.354844743227
99.422513	-2.978934	-0.327077364827
99.406659	-2.956979	-0.360188563465
99.390806	-2.935025	-0.464310160226
99.374953	-2.91307	-0.27988944952
99.359101	-2.891114	-0.00071177559627
99.34325	-2.869159	0.231608966054
99.327399	-2.847203	0.469170286556
99.311549	-2.825247	0.674330533547
100.142419	-3.928865	0.623792304915
100.126534	-3.906923	0.505542331834
100.110649	-3.88498	0.32110406179
100.094765	-3.863037	0.0746007641535
100.078881	-3.841094	-0.133537475427
100.062999	-3.81915	-0.234003856495
100.047117	-3.797206	-0.400170490856
100.031237	-3.775262	-0.648702764297
100.015357	-3.753318	-0.9508990955
99.999477	-3.731373	-0.978230944254
99.983599	-3.709428	-0.828058940335
99.967721	-3.687482	-0.735558490583
99.951844	-3.665537	-0.6920088751
99.935968	-3.643591	-0.690680874804
99.920093	-3.621644	-0.850464452899
99.904218	-3.599698	-1.08271748479
99.888344	-3.577751	-1.35575261153
99.872471	-3.555804	-1.69259647774
99.856599	-3.533856	-1.88301397409
99.840727	-3.511909	-1.73261349295
99.824856	-3.489961	-1.6421460613
99.808986	-3.468012	-1.64385042907
99.793117	-3.446064	-1.72868140064
99.777248	-3.424115	-1.72007346194
99.76138	-3.402166	-1.48978775468
99.745513	-3.380217	-1.33214100906
99.729646	-3.358267	-1.2920481796
99.71378	-3.336317	-1.32998040678
99.697915	-3.314367	-1.13528507799
99.68205	-3.292417	-0.892703043804
99.666187	-3.270466	-0.761677190404
99.650323	-3.248515	-0.736320364174
99.634461	-3.226564	-0.762248742515
99.618599	-3.204613	-0.585973798219
99.602738	-3.182661	-0.3280670847
99.586878	-3.160709	-0.0922020267956
99.571018	-3.138757	0.151536072904
99.555159	-3.116805	0.263950432536
99.5393	-3.094852	0.101959027645
99.523442	-3.072899	-0.0604908900361
99.507585	-3.050946	-0.193483874606
99.491729	-3.028993	-0.322130174465
99.475873	-3.007039	-0.364284322439
99.460017	-2.985085	-0.313957651953
99.444163	-2.963131	-0.302126407944
99.428309	-2.941177	-0.344494848605
99.412455	-2.919223	-0.402276490044
99.396602	-2.897268	-0.264482374107
99.38075	-2.875313	-0.018841878832
99.364899	-2.853358	0.215374662419
99.349048	-2.831402	0.459199926788
99.333197	-2.809447	0.658666631375
100.164079	-3.913047	0.688602466567
100.148193	-3.891105	0.55796346675
100.132308	-3.869162	0.374904235285
100.116424	-3.84722	0.156080709435
100.10054	-3.825277	-0.0519031068799
100.084657	-3.803334	-0.237526772812
100.068776	-3.78139	-0.444244910552
100.052895	-3.759446	-0.674323463013
100.037014	-3.737502	-0.864915693928
100.021135	-3.715558	-0.908956079488
100.005256	-3.693613	-0.827561778566
99.989378	-3.671668	-0.721510564579
99.973501	-3.649722	-0.643035572361
99.957625	-3.627777	-0.628248579616
99.941749	-3.605831	-0.713480479071
99.925874	-3.583885	-0.878223899672
99.91	-3.561938	-1.08754801832
99.894127	-3.539991	-1.30437214002
99.878254	-3.518044	-1.42636008162
99.862382	-3.496097	-1.42010729657
99.846511	-3.474149	-1.38979288141
99.830641	-3.452202	-1.38568303791
99.814771	-3.430253	-1.39157943981
99.798902	-3.408305	-1.33443154495
99.783034	-3.386356	-1.19547522012
99.767166	-3.364407	-1.0570955507
99.7513	-3.342458	-0.963302581728
99.735433	-3.320509	-0.884407603118
99.719568	-3.298559	-0.753913682021
99.703703	-3.276609	-0.609979151353
99.687839	-3.254658	-0.515842638413
99.671976	-3.232708	-0.478783567704
99.656113	-3.210757	-0.459413488552
99.640251	-3.188806	-0.396458236982
99.62439	-3.166855	-0.305813189662
99.608529	-3.144903	-0.218198252789
99.592669	-3.122951	-0.13848717476
99.57681	-3.100999	-0.106619893258
99.560951	-3.079047	-0.136944372424
99.545093	-3.057095	-0.174495484137
99.529236	-3.035142	-0.202075865156
99.513379	-3.013189	-0.225224985987
99.497523	-2.991235	-0.226365585316
99.481667	-2.969282	-0.212315400774
99.465812	-2.947328	-0.215431837172
99.449958	-2.925374	-0.23618466745
99.434104	-2.90342	-0.233139686531
99.418251	-2.881466	-0.147705770174
99.402399	-2.859511	0.00379908170581
99.386547	-2.837556	0.173178958766
99.370696	-2.815601	0.332846155366
99.354845	-2.793646	0.422999026892
100.185738	-3.897228	0.807642967624
100.169851	-3.875286	0.656018181593
100.153966	-3.853344	0.469418635766
100.138082	-3.831402	0.26282437015
100.122198	-3.809459	0.0419053751385
100.106315	-3.787516	-0.19467650251
100.090433	-3.765573	-0.445899431649
100.074552	-3.74363	-0.689277682178
100.058671	-3.721686	-0.864848992355
100.042792	-3.699742	-0.904532753018
100.026913	-3.677797	-0.816509909622
100.011034	-3.655853	-0.676470542972
99.995157	-3.633908	-0.55136227456
99.979281	-3.611963	-0.491103920437
99.963405	-3.590017	-0.526403658945
99.94753	-3.568071	-0.640932872924
99.931655	-3.546125	-0.789500117314
99.915782	-3.524179	-0.930203198217
99.899909	-3.502232	-1.02850263615
99.884037	-3.480285	-1.07622074566
99.868165	-3.458338	-1.09132659127
99.852295	-3.43639	-1.08579868153
99.836425	-3.414442	-1.05344239194
99.820556	-3.392494	-0.978242540487
99.804687	-3.370546	-0.8598776451
99.788819	-3.348597	-0.718351898947
99.772952	-3.326648	-0.573929445579
99.757086	-3.304699	-0.441735285403
99.74122	-3.28275	-0.335844261776
99.725355	-3.2608	-0.260395884725
99.709491	-3.23885	-0.207609523372
99.693628	-3.2169	-0.173846379309
99.677765	-3.194949	-0.16593297092
99.661902	-3.172999	-0.19669679805
99.646041	-3.151048	-0.26519320392
99.63018	-3.129097	-0.3526176022
99.61432	-3.107145	-0.430587745934
99.59846	-3.085193	-0.45576821784
99.582601	-3.063241	-0.404411443254
99.566743	-3.041289	-0.30736509715
99.550885	-3.019337	-0.206693857691
99.535028	-2.997384	-0.126874325168
99.519172	-2.975431	-0.0848535014735
99.503316	-2.953478	-0.0836770423933
99.487461	-2.931525	-0.105818546419
99.471606	-2.909571	-0.126599051357
99.455753	-2.887617	-0.120445530285
99.439899	-2.865663	-0.0689130516252
99.424047	-2.843709	0.0215855341608
99.408194	-2.821754	0.127018308553
99.392343	-2.799799	0.220158238153
99.376492	-2.777844	0.270025873371
100.207396	-3.881408	0.973007874388
100.191509	-3.859467	0.773042523654
100.175624	-3.837525	0.574983525395
100.159739	-3.815584	0.380100982295
100.143855	-3.793641	0.151779847692
100.127972	-3.771699	-0.130384138448
100.11209	-3.749756	-0.438830667373
100.096208	-3.727813	-0.744296312315
100.080328	-3.705869	-0.979394138161
100.064448	-3.683926	-1.00604353659
100.048568	-3.661982	-0.834394410483
100.03269	-3.640037	-0.610768897047
100.016812	-3.618093	-0.402001335718
100.000936	-3.596148	-0.266159775562
99.98506	-3.574203	-0.273978218493
99.969184	-3.552257	-0.383887365191
99.95331	-3.530311	-0.503551299154
99.937436	-3.508365	-0.598206324339
99.921563	-3.486419	-0.679410324471
99.905691	-3.464472	-0.757631253628
99.889819	-3.442525	-0.803894766206
99.873948	-3.420578	-0.800491912815
99.858078	-3.398631	-0.747105264866
99.842209	-3.376683	-0.657428927039
99.82634	-3.354735	-0.540203214859
99.810472	-3.332787	-0.378597450094
99.794605	-3.310838	-0.171476582952
99.778738	-3.288889	0.0254338100642
99.762872	-3.26694	0.106613208451
99.747007	-3.244991	0.101931283638
99.731142	-3.223041	0.109534329728
99.715279	-3.201091	0.147238106994
99.699415	-3.179141	0.159512695636
99.683553	-3.157191	0.0363378006504
99.667691	-3.13524	-0.204852629268
99.65183	-3.113289	-0.485195654801
99.63597	-3.091338	-0.759929643644
99.62011	-3.069387	-0.870041456832
99.604251	-3.047435	-0.700678243472
99.588392	-3.025483	-0.4379597673
99.572534	-3.003531	-0.194875218538
99.556677	-2.981579	0.00162251814029
99.54082	-2.959626	0.088868465896
99.524964	-2.937673	0.0574235873284
99.509109	-2.91572	-0.0029137400831
99.493254	-2.893767	-0.043924794926
99.4774	-2.871813	-0.0536767794526
99.461547	-2.84986	-0.027842802048
99.445694	-2.827906	0.025298005099
99.429841	-2.805951	0.087778567105
99.41399	-2.783997	0.141511755258
99.398139	-2.762042	0.171461562306
100.229053	-3.865588	1.13771277637
100.213166	-3.843647	0.858203461557
100.197281	-3.821706	0.655572684714
100.181396	-3.799765	0.505159022425
100.165512	-3.777823	0.295582252757
100.149628	-3.755881	-0.053172345534
100.133746	-3.733938	-0.419752925607
100.117864	-3.711995	-0.804541970492
100.101983	-3.690052	-1.20557108167
100.086103	-3.668109	-1.19624363994
100.070224	-3.646165	-0.849241830717
100.054345	-3.624221	-0.527696696784
100.038467	-3.602277	-0.21494270373
100.02259	-3.580333	0.0604460217591
100.006714	-3.558388	0.0237688524695
99.990838	-3.536443	-0.148444360033
99.974963	-3.514497	-0.26307445851
99.959089	-3.492551	-0.30677653431
99.943216	-3.470605	-0.35621680796
99.927344	-3.448659	-0.488812984085
99.911472	-3.426713	-0.566572695666
99.895601	-3.404766	-0.565099552645
99.87973	-3.382819	-0.485811918692
99.863861	-3.360871	-0.373496361127
99.847992	-3.338924	-0.275215902896
99.832124	-3.316976	-0.0969590780665
99.816256	-3.295027	0.188586489911
99.800389	-3.273079	0.539367938959
99.784523	-3.25113	0.549645350398
99.768658	-3.229181	0.40985713289
99.752793	-3.207232	0.370765327522
99.736929	-3.185283	0.431953752876
99.721066	-3.163333	0.545239295024
99.705203	-3.141383	0.303302068997
99.689341	-3.119432	-0.125481467897
99.67348	-3.097482	-0.571070476995
99.657619	-3.075531	-1.0990543044
99.641759	-3.05358	-1.42225860395
99.625899	-3.031629	-0.961698511904
99.610041	-3.009677	-0.526879069568
99.594183	-2.987725	-0.163591355831
99.578325	-2.965773	0.183736250625
99.562468	-2.943821	0.324814955353
99.546612	-2.921868	0.181795465426
99.530756	-2.899916	0.0675657782362
99.514902	-2.877963	0.00463102517562
99.499047	-2.856009	-0.0225192947033
99.483193	-2.834056	-0.012472158494
99.46734	-2.812102	0.0197837441633
99.451488	-2.790148	0.0561390408173
99.435636	-2.768194	0.0861678430601
99.419784	-2.74624	0.102757409924
100.250709	-3.849768	1.11543294936
100.234823	-3.827827	0.839534795755
100.218937	-3.805887	0.654657857536
100.203052	-3.783945	0.543655141721
100.187167	-3.762004	0.373758456952
100.171284	-3.740062	-0.00784545816344
100.155401	-3.71812	-0.373327352047
100.139519	-3.696178	-0.74557170369
100.123638	-3.674235	-1.12344547877
100.107757	-3.652292	-1.10635335534
100.091878	-3.630349	-0.765401396274
100.075999	-3.608405	-0.436044676144
100.060121	-3.586461	-0.101697288773
100.044244	-3.564517	0.240151892832
100.028367	-3.542572	0.176539217953
100.012491	-3.520628	-0.00943733139025
99.996617	-3.498683	-0.116058692521
99.980742	-3.476737	-0.140975458936
99.964869	-3.454792	-0.171666273812
99.948996	-3.432846	-0.324947190337
99.933124	-3.410899	-0.410166052778
99.917253	-3.388953	-0.411116940999
99.901382	-3.367006	-0.33052497279
99.885512	-3.345059	-0.215196493773
99.869643	-3.323112	-0.116960362898
99.853775	-3.301164	0.0650594880607
99.837907	-3.279216	0.3569493342
99.82204	-3.257268	0.723975782313
99.806174	-3.23532	0.719542447229
99.790308	-3.213371	0.562850854541
99.774443	-3.191422	0.508504881378
99.758579	-3.169473	0.548976846279
99.742715	-3.147524	0.623284516751
99.726852	-3.125574	0.374385622488
99.71099	-3.103624	-0.0599967990153
99.695128	-3.081674	-0.515444002623
99.679267	-3.059723	-1.03137428986
99.663407	-3.037773	-1.31381126808
99.647548	-3.015822	-0.934419310328
99.631689	-2.99387	-0.523822778244
99.61583	-2.971919	-0.163583228615
99.599973	-2.949967	0.204828126801
99.584116	-2.928015	0.359533221507
99.568259	-2.906063	0.19242207473
99.552403	-2.884111	0.0772702190184
99.536548	-2.862158	0.0174541160888
99.520694	-2.840205	-0.00851390291864
99.50484	-2.818252	-0.0066381175595
99.488986	-2.796298	0.0108721087396
99.473133	-2.774345	0.030767514366
99.457281	-2.752391	0.0468864202931
99.44143	-2.730437	0.0565717856636
100.272365	-3.833947	0.876106343318
100.256478	-3.812007	0.705873986255
100.240592	-3.790066	0.556569545216
100.224707	-3.768126	0.424703381879
100.208822	-3.746184	0.241859481303
100.192938	-3.724243	-0.0230873938165
100.177055	-3.702301	-0.308594403204
100.161173	-3.680359	-0.579720840735
100.145292	-3.658417	-0.776231012868
100.129411	-3.636474	-0.773363346718
100.113532	-3.614531	-0.589341908045
100.097652	-3.592588	-0.344330012789
100.081774	-3.570644	-0.0951220211624
100.065897	-3.548701	0.0905934006019
100.05002	-3.526757	0.106821692446
100.034144	-3.504812	0.0175801948516
100.018269	-3.482867	-0.0685577678692
100.002394	-3.460922	-0.12643624946
99.986521	-3.438977	-0.191425300537
99.970648	-3.417032	-0.279340461486
99.954775	-3.395086	-0.339341581239
99.938904	-3.37314	-0.343040722084
99.923033	-3.351193	-0.289059232841
99.907163	-3.329246	-0.195972134786
99.891294	-3.307299	-0.0722437006783
99.875425	-3.285352	0.102921239909
99.859557	-3.263405	0.328322796108
99.84369	-3.241457	0.533601650996
99.827823	-3.219509	0.59558782915
99.811957	-3.197561	0.55653013452
99.796092	-3.175612	0.522977394007
99.780228	-3.153663	0.513476126658
99.764364	-3.131714	0.467987779472
99.748501	-3.109765	0.286621424904
99.732638	-3.087815	-0.00727260460038
99.716777	-3.065865	-0.3375543685
99.700915	-3.043915	-0.644709026463
99.685055	-3.021965	-0.779159501714
99.669195	-3.000014	-0.661643317258
99.653336	-2.978063	-0.44038260137
99.637477	-2.956112	-0.209001993361
99.621619	-2.934161	0.00040691492263
99.605762	-2.912209	0.0976347873344
99.589905	-2.890257	0.071494378239
99.574049	-2.868305	0.0254266183079
99.558194	-2.846353	-0.00110535624625
99.542339	-2.8244	-0.0100973742795
99.526485	-2.802447	-0.0074118752366
99.510631	-2.780494	0.000772247760467
99.494778	-2.758541	0.00949943703726
99.478926	-2.736587	0.0169424304842
99.463074	-2.714634	0.0241296792802
100.29402	-3.818126	0.613533329094
100.278133	-3.796186	0.522472382985
100.262247	-3.774246	0.414133747319
100.246361	-3.752305	0.290361295448
100.230476	-3.730364	0.137849462912
100.214592	-3.708423	-0.0466498431811
100.198709	-3.686482	-0.244398317137
100.182827	-3.66454	-0.424383812168
100.166945	-3.642598	-0.538148681251
100.151064	-3.620656	-0.53552958042
100.135184	-3.598714	-0.421700183889
100.119305	-3.576771	-0.251294928392
100.103427	-3.554827	-0.0803992013139
100.087549	-3.532884	0.035757045251
100.071672	-3.51094	0.0585512096063
100.055796	-3.488996	0.00766414288858
100.03992	-3.467052	-0.0701204009621
100.024046	-3.445107	-0.148952053188
100.008172	-3.423162	-0.223332938861
99.992299	-3.401217	-0.287523216463
99.976426	-3.379272	-0.329039553991
99.960554	-3.357326	-0.337373591656
99.944683	-3.33538	-0.304367463347
99.928813	-3.313433	-0.223669170734
99.912944	-3.291487	-0.0959073284697
99.897075	-3.26954	0.0690336114594
99.881207	-3.247593	0.249451406231
99.865339	-3.225645	0.400651654612
99.849472	-3.203697	0.47777779817
99.833606	-3.18175	0.489664918402
99.817741	-3.159801	0.475430368846
99.801876	-3.137853	0.447506406911
99.786012	-3.115904	0.381459662197
99.770149	-3.093955	0.249141321389
99.754286	-3.072006	0.062662474023
99.738424	-3.050056	-0.13663102233
99.722563	-3.028106	-0.302819691288
99.706702	-3.006156	-0.391507296677
99.690842	-2.984206	-0.39242336199
99.674983	-2.962255	-0.335835204577
99.659124	-2.940305	-0.255370394539
99.643266	-2.918354	-0.174015846721
99.627408	-2.896402	-0.111277926532
99.611551	-2.874451	-0.0744631438265
99.595695	-2.852499	-0.0532267251842
99.579839	-2.830547	-0.036621808557
99.563984	-2.808595	-0.0221737210308
99.54813	-2.786642	-0.0127557442738
99.532276	-2.764689	-0.00945518642277
99.516423	-2.742736	-0.0100460219653
99.50057	-2.720783	-0.0111707687615
99.484718	-2.69883	-0.0076355071913
100.315675	-3.802304	0.377092887368
100.299787	-3.780364	0.344580505038
100.283901	-3.758425	0.275307339274
100.268015	-3.736484	0.174784766596
100.25213	-3.714544	0.0625236856866
100.236246	-3.692603	-0.0554151952585
100.220362	-3.670662	-0.18510583366
100.20448	-3.648721	-0.311322667682
100.188598	-3.626779	-0.396589365358
100.172717	-3.604838	-0.389905274899
100.156837	-3.582895	-0.290674573076
100.140957	-3.560953	-0.152127097004
100.125079	-3.53901	-0.0172596789827
100.109201	-3.517067	0.0695132143219
100.093323	-3.495123	0.0726117352535
100.077447	-3.47318	0.0116402261561
100.061571	-3.451236	-0.0804536688631
100.045696	-3.429291	-0.182925705106
100.029822	-3.407347	-0.268936627778
100.013949	-3.385402	-0.319910334197
99.998076	-3.363457	-0.350549281355
99.982204	-3.341511	-0.370328334073
99.966333	-3.319566	-0.366131248479
99.950463	-3.29762	-0.298230944448
99.934593	-3.275673	-0.160123085909
99.918724	-3.253727	0.00665838171248
99.902855	-3.23178	0.177595896936
99.886988	-3.209833	0.3223965921
99.871121	-3.187886	0.400367302192
99.855254	-3.165938	0.417747183461
99.839389	-3.14399	0.411103297838
99.823524	-3.122042	0.390764887295
99.80766	-3.100093	0.343100671995
99.791796	-3.078145	0.253191540242
99.775933	-3.056196	0.141129318957
99.760071	-3.034247	0.0419263792495
99.744209	-3.012297	-0.0229254028154
99.728348	-2.990347	-0.0787826503024
99.712488	-2.968397	-0.162954165474
99.696628	-2.946447	-0.239550700455
99.68077	-2.924497	-0.294568175811
99.664911	-2.902546	-0.324989659012
99.649053	-2.880595	-0.289296902748
99.633196	-2.858644	-0.203148703151
99.61734	-2.836692	-0.126969940289
99.601484	-2.814741	-0.0702968173225
99.585629	-2.792789	-0.0299511016122
99.569774	-2.770837	-0.0132607529259
99.55392	-2.748884	-0.0169492068932
99.538067	-2.726931	-0.0283058865372
99.522214	-2.704979	-0.0418908785686
99.506362	-2.683025	-0.0451860310302
100.337328	-3.786481	0.177704330414
100.321441	-3.764542	0.206742719197
100.305554	-3.742603	0.171172291486
100.289668	-3.720663	0.0805511862544
100.273783	-3.698723	0.00698036142322
100.257898	-3.676783	-0.0393359539362
100.242015	-3.654842	-0.116907015016
100.226132	-3.632901	-0.21662602372
100.21025	-3.61096	-0.317859521884
100.194369	-3.589019	-0.306193681255
100.178488	-3.567077	-0.178516243523
100.162608	-3.545134	-0.0451643218051
100.14673	-3.523192	0.0835235785415
100.130851	-3.501249	0.17529167016
100.114974	-3.479306	0.133075570085
100.099097	-3.457363	0.038667454942
100.083222	-3.435419	-0.07971820605
100.067347	-3.413475	-0.22253367037
100.051472	-3.391531	-0.337556013636
100.035599	-3.369587	-0.357885019712
100.019726	-3.347642	-0.375059480347
100.003853	-3.325697	-0.410899290822
99.987982	-3.303751	-0.460953452774
99.972111	-3.281806	-0.411761869998
99.956241	-3.25986	-0.238861988807
99.940372	-3.237914	-0.0655758889283
99.924503	-3.215967	0.111889339933
99.908636	-3.19402	0.286054828545
99.892768	-3.172073	0.351679542289
99.876902	-3.150126	0.343266899459
99.861036	-3.128178	0.338861162358
99.845171	-3.106231	0.337841601993
99.829306	-3.084282	0.329225179777
99.813443	-3.062334	0.26541794047
99.79758	-3.040385	0.202184413481
99.781717	-3.018437	0.174582154855
99.765855	-2.996487	0.208548941152
99.749994	-2.974538	0.22656955037
99.734134	-2.952588	0.0261744142548
99.718274	-2.930639	-0.158804470197
99.702415	-2.908688	-0.320748122541
99.686556	-2.886738	-0.487748531449
99.670698	-2.864787	-0.456895219659
99.654841	-2.842836	-0.293395201782
99.638984	-2.820885	-0.175900761221
99.623128	-2.798934	-0.0915149469819
99.607273	-2.776982	-0.0233978011198
99.591418	-2.75503	-0.00486412711504
99.575564	-2.733078	-0.021138664905
99.55971	-2.711126	-0.0416414791558
99.543857	-2.689173	-0.0702406842826
99.528004	-2.667221	-0.0927053945382
100.358981	-3.770659	0.0807350188072
100.343093	-3.74872	0.140942214081
100.327206	-3.726781	0.136550344677
100.31132	-3.704842	0.0728430896301
100.295435	-3.682902	0.0332839522265
100.27955	-3.660962	0.0265421997297
100.263666	-3.639022	-0.0185676918569
100.247783	-3.617081	-0.0928697212029
100.231901	-3.59514	-0.180020758299
100.21602	-3.573199	-0.165587820815
100.200139	-3.551258	-0.0478781587234
100.184259	-3.529316	0.0674527978626
100.16838	-3.507374	0.1747393509
100.152502	-3.485431	0.246429529432
100.136624	-3.463489	0.189082944569
100.120747	-3.441546	0.082197995565
100.104871	-3.419602	-0.0486402636148
100.088996	-3.397659	-0.210198457633
100.073121	-3.375715	-0.349626314796
100.057247	-3.353771	-0.354652670321
100.041374	-3.331826	-0.373003654661
100.025502	-3.309881	-0.415921765334
100.00963	-3.287936	-0.469901369019
99.993759	-3.265991	-0.434643934496
99.977889	-3.244046	-0.293443840996
99.96202	-3.2221	-0.142552087799
99.946151	-3.200154	0.017526926591
99.930283	-3.178207	0.189027313524
99.914415	-3.15626	0.24795624103
99.898549	-3.134313	0.242038372149
99.882683	-3.112366	0.251156953228
99.866817	-3.090419	0.267545516097
99.850953	-3.068471	0.275591027507
99.835089	-3.046523	0.250484953162
99.819225	-3.024575	0.224771898399
99.803363	-3.002626	0.229525608856
99.787501	-2.980677	0.283505571701
99.771639	-2.958728	0.301095529406
99.755779	-2.936779	0.102633084456
99.739919	-2.914829	-0.0995287750497
99.724059	-2.89288	-0.283406931082
99.7082	-2.870929	-0.463895784337
99.692342	-2.848979	-0.449738800974
99.676485	-2.827029	-0.301352680462
99.660628	-2.805078	-0.186948052208
99.644771	-2.783127	-0.102553401548
99.628916	-2.761175	-0.0373328162823
99.613061	-2.739224	-0.0154552118584
99.597206	-2.717272	-0.0261512592455
99.581352	-2.69532	-0.0438597298028
99.565499	-2.673368	-0.0680486445219
99.549646	-2.651415	-0.0805589486846
100.380633	-3.754835	0.0963784995256
100.364745	-3.732897	0.149886033185
100.348858	-3.710958	0.176803145427
100.332972	-3.689019	0.172850346308
100.317086	-3.66708	0.162256305602
100.301201	-3.645141	0.148205521994
100.285317	-3.623201	0.115172461632
100.269434	-3.60126	0.0679044476638
100.253552	-3.57932	0.0301490963791
100.23767	-3.557379	0.0436487207256
100.221789	-3.535438	0.108214830057
100.205909	-3.513496	0.186762201632
100.19003	-3.491555	0.254038928586
100.174151	-3.469613	0.279367344897
100.158273	-3.44767	0.23603611846
100.142396	-3.425728	0.140934072428
100.12652	-3.403785	0.0168108261559
100.110644	-3.381842	-0.12012384212
100.09477	-3.359898	-0.231083875488
100.078896	-3.337954	-0.292035588559
100.063022	-3.31601	-0.337906695774
100.04715	-3.294066	-0.385774755599
100.031278	-3.272121	-0.419498353957
100.015407	-3.250176	-0.400955922756
99.999536	-3.228231	-0.325449609559
99.983667	-3.206285	-0.223717790282
99.967798	-3.18434	-0.11181907126
99.951929	-3.162393	-0.00455797730152
99.936062	-3.140447	0.0666471899186
99.920195	-3.118501	0.110057563138
99.904329	-3.096554	0.150005759037
99.888463	-3.074606	0.186115984241
99.872598	-3.052659	0.208961684551
99.856734	-3.030711	0.213905404107
99.84087	-3.008763	0.212082430261
99.825008	-2.986815	0.217192119501
99.809145	-2.964867	0.226323863749
99.793284	-2.942918	0.192431174802
99.777423	-2.920969	0.0809939594473
99.761563	-2.89902	-0.0601437752369
99.745703	-2.87707	-0.194566879882
99.729844	-2.855121	-0.292875979814
99.713986	-2.833171	-0.300958760981
99.698128	-2.81122	-0.236785757052
99.682271	-2.78927	-0.162290902005
99.666414	-2.767319	-0.100216292716
99.650558	-2.745368	-0.0549980109947
99.634703	-2.723417	-0.0322592947554
99.618848	-2.701465	-0.0288322303206
99.602994	-2.679514	-0.0353902992402
99.587141	-2.657562	-0.0443177033391
99.571288	-2.63561	-0.0421725241022
100.402285	-3.739012	0.133330319408
100.386396	-3.717074	0.200810139398
100.370509	-3.695135	0.263591024354
100.354622	-3.673197	0.304352575177
100.338737	-3.651258	0.316627532199
100.322852	-3.629319	0.301803185769
100.306967	-3.607379	0.269960027217
100.291084	-3.585439	0.235534723572
100.275201	-3.563499	0.215310134687
100.259319	-3.541559	0.224509981189
100.243438	-3.519618	0.26301925207
100.227558	-3.497677	0.315054956537
100.211679	-3.475735	0.358277428144
100.1958	-3.453794	0.364950138008
100.179922	-3.431852	0.31606361555
100.164045	-3.409909	0.219992805024
100.148168	-3.387967	0.0988378519915
100.132292	-3.366024	-0.0265287201889
100.116417	-3.344081	-0.135117419111
100.100543	-3.322137	-0.218744011457
100.08467	-3.300194	-0.288270303989
100.068797	-3.27825	-0.35074077964
100.052925	-3.256305	-0.394843368439
100.037054	-3.234361	-0.399554562026
100.021183	-3.212416	-0.362809030621
100.005313	-3.190471	-0.305879939874
99.989444	-3.168525	-0.244870638679
99.973575	-3.146579	-0.180798410258
99.957707	-3.124633	-0.107971340092
99.94184	-3.102687	-0.0271627070056
99.925974	-3.080741	0.0499434025143
99.910108	-3.058794	0.112550337717
99.894243	-3.036847	0.155283112214
99.878379	-3.014899	0.178041092807
99.862515	-2.992952	0.185694245525
99.846652	-2.971004	0.182712162071
99.830789	-2.949056	0.166119047607
99.814928	-2.927107	0.124945510582
99.799066	-2.905159	0.0557927561821
99.783206	-2.88321	-0.0291389517988
99.767346	-2.861261	-0.111591176373
99.751487	-2.839311	-0.169204572932
99.735628	-2.817361	-0.182348221331
99.71977	-2.795412	-0.156882123531
99.703913	-2.773461	-0.117209651963
99.688056	-2.751511	-0.0806237280582
99.6722	-2.72956	-0.0523373420496
99.656345	-2.707609	-0.0324202198902
99.64049	-2.685658	-0.0217698468144
99.624636	-2.663707	-0.020056515134
99.608782	-2.641755	-0.0217215960926
99.592929	-2.619803	-0.0164179162374
100.423935	-3.723187	0.158048614668
100.408047	-3.70125	0.267366730871
100.392159	-3.679312	0.378794127481
100.376272	-3.657374	0.468357281927
100.360386	-3.635435	0.500576810474
100.344501	-3.613496	0.473406544133
100.328617	-3.591557	0.429585600783
100.312733	-3.569618	0.393386515046
100.29685	-3.547678	0.374261807056
100.280968	-3.525738	0.378339551392
100.265087	-3.503797	0.405685609216
100.249207	-3.481857	0.44884414233
100.233327	-3.459916	0.492525903126
100.217448	-3.437974	0.50077981975
100.20157	-3.416033	0.434548881981
100.185692	-3.394091	0.316648648067
100.169816	-3.372148	0.183536061301
100.15394	-3.350206	0.0519830242474
100.138065	-3.328263	-0.0610684644456
100.12219	-3.30632	-0.151603787172
100.106316	-3.284377	-0.235418512558
100.090443	-3.262433	-0.321095756312
100.074571	-3.240489	-0.397924892627
100.0587	-3.218545	-0.427711104721
100.042829	-3.1966	-0.404762169974
100.026959	-3.174655	-0.377970657874
100.011089	-3.15271	-0.369326637501
99.99522	-3.130765	-0.356906508975
99.979352	-3.108819	-0.282861528667
99.963485	-3.086873	-0.154147687453
99.947618	-3.064927	-0.0328692120199
99.931753	-3.042981	0.0587723157051
99.915887	-3.021034	0.120192634285
99.900023	-2.999087	0.1542354605
99.884159	-2.97714	0.164951678667
99.868295	-2.955192	0.154310291292
99.852433	-2.933244	0.122995877778
99.836571	-2.911296	0.0814902870282
99.820709	-2.889348	0.0435937542558
99.804849	-2.867399	0.00169493199011
99.788989	-2.84545	-0.0452486205717
99.773129	-2.823501	-0.0830568205194
99.757271	-2.801552	-0.0947279256572
99.741412	-2.779602	-0.0816945566394
99.725555	-2.757652	-0.0618989716785
99.709698	-2.735702	-0.0473738723411
99.693842	-2.713752	-0.0372101569218
99.677986	-2.691802	-0.019191538793
99.662131	-2.669851	-0.00204005569208
99.646276	-2.6479	0.00279380195228
99.630423	-2.625948	-0.00158107763318
99.614569	-2.603997	-0.00185163231647
100.445585	-3.707363	0.168162561832
100.429697	-3.685425	0.341203560532
100.413809	-3.663488	0.507620979232
100.397922	-3.64155	0.670096197965
100.382036	-3.619612	0.722653747562
100.36615	-3.597673	0.645324334629
100.350266	-3.575735	0.578597122161
100.334382	-3.553796	0.534740724612
100.318499	-3.531856	0.510847248886
100.302617	-3.509916	0.509537772082
100.286735	-3.487976	0.531819090803
100.270854	-3.466036	0.574602437559
100.254975	-3.444095	0.638889598866
100.239095	-3.422154	0.688039684793
100.223217	-3.400213	0.575056009757
100.207339	-3.378271	0.416784022321
100.191462	-3.35633	0.266038248112
100.175586	-3.334387	0.117342422682
100.159711	-3.312445	-0.00227321204883
100.143836	-3.290502	-0.0826172523924
100.127962	-3.268559	-0.171807098956
100.112089	-3.246616	-0.28062234866
100.096217	-3.224672	-0.413910444186
100.080345	-3.202728	-0.473908475938
100.064474	-3.180784	-0.422694621221
100.048604	-3.15884	-0.412176262967
100.032734	-3.136895	-0.460995174805
100.016865	-3.11495	-0.550420700749
100.000997	-3.093004	-0.465202859891
99.985129	-3.071059	-0.246202127806
99.969262	-3.049113	-0.0796507961472
99.953396	-3.027167	0.0355081347615
99.937531	-3.00522	0.110992413495
99.921666	-2.983274	0.150703900652
99.905802	-2.961327	0.16246360622
99.889938	-2.93938	0.14660961184
99.874076	-2.917432	0.0994040864365
99.858213	-2.895484	0.0445251327089
99.842352	-2.873536	0.0481039884028
99.826491	-2.851588	0.0427163957151
99.810631	-2.82964	0.0176461075982
99.794771	-2.807691	-0.0158576967831
99.778912	-2.785742	-0.0233908051571
99.763054	-2.763793	-0.00624144455562
99.747196	-2.741843	0.00480446146456
99.731339	-2.719893	0.00273597001506
99.715482	-2.697943	-0.0142240987943
99.699627	-2.675993	0.0115561232736
99.683771	-2.654043	0.035938638546
99.667917	-2.632092	0.0394327745565
99.652062	-2.610141	0.0238695758856
99.636209	-2.58819	0.000553622541447
100.467235	-3.691538	0.220004030676
100.451346	-3.669601	0.429446509017
100.435458	-3.647664	0.615195483616
100.419571	-3.625726	0.803067914347
100.403684	-3.603788	0.865068006763
100.387799	-3.58185	0.77060478634
100.371914	-3.559912	0.700596279557
100.35603	-3.537973	0.655672743315
100.340147	-3.516034	0.629351821508
100.324264	-3.494095	0.622954661279
100.308382	-3.472155	0.637618708115
100.292502	-3.450215	0.671686389613
