99.445584	-2.995621	-0.348876889737
99.435014	-2.980985	-0.328359291554
99.424445	-2.966348	-0.333496898329
99.413876	-2.951712	-0.372362466521
99.403307	-2.937076	-0.450728651172
99.392738	-2.922439	-0.514846098054
99.38217	-2.907802	-0.305088678165
99.371602	-2.893166	-0.104189367762
99.361034	-2.878529	0.0693677469602
99.350466	-2.863892	0.230007858513
99.339899	-2.849255	0.396699509525
99.329332	-2.834618	0.584734572998
99.318765	-2.81998	0.774343148014
100.147715	-3.936179	0.648178212477
100.137124	-3.921551	0.591936866676
100.126534	-3.906923	0.505542331834
100.115944	-3.892294	0.389730924659
100.105354	-3.877666	0.245384723983
100.094765	-3.863037	0.0746007641535
100.084176	-3.848408	-0.0892100979228
100.073587	-3.833779	-0.162908131113
100.062999	-3.81915	-0.234003856495
100.052411	-3.804521	-0.336104886863
100.041824	-3.789892	-0.473415272782
100.031237	-3.775262	-0.648702764297
100.02065	-3.760632	-0.85386735107
100.010063	-3.746003	-1.008611235
99.999477	-3.731373	-0.978230944254
99.988892	-3.716743	-0.873719046732
99.978306	-3.702113	-0.790099326765
99.967721	-3.687482	-0.735558490583
99.957136	-3.672852	-0.702724622797
99.946552	-3.658221	-0.684690715344
99.935968	-3.643591	-0.690680874804
99.925384	-3.62896	-0.781190364497
99.914801	-3.614329	-0.924512846857
99.904218	-3.599698	-1.08271748479
99.893635	-3.585066	-1.25846093578
99.883053	-3.570435	-1.46087216182
99.872471	-3.555804	-1.69259647774
99.861889	-3.541172	-1.87898979602
99.851308	-3.52654	-1.83928212695
99.840727	-3.511909	-1.73261349295
99.830146	-3.497277	-1.66177977481
99.819566	-3.482645	-1.63271267821
99.808986	-3.468012	-1.64385042907
99.798406	-3.45338	-1.69327692677
99.787827	-3.438748	-1.76127043173
99.777248	-3.424115	-1.72007346194
99.766669	-3.409482	-1.56534953896
99.756091	-3.39485	-1.42474999874
99.745513	-3.380217	-1.33214100906
99.734935	-3.365584	-1.29194380536
99.724357	-3.350951	-1.30361392324
99.71378	-3.336317	-1.32998040678
99.703203	-3.321684	-1.2267015846
99.692627	-3.307051	-1.04341303134
99.68205	-3.292417	-0.892703043804
99.671474	-3.277783	-0.793019111316
99.660899	-3.263149	-0.74209144957
99.650323	-3.248515	-0.736320364174
99.639748	-3.233881	-0.761284928168
99.629174	-3.219247	-0.733409988917
99.618599	-3.204613	-0.585973798219
99.608025	-3.189978	-0.41084407214
99.597451	-3.175344	-0.248617805769
99.586878	-3.160709	-0.0922020267956
99.576304	-3.146075	0.0699259027715
99.565731	-3.13144	0.225521487348
99.555159	-3.116805	0.263950432536
99.544586	-3.10217	0.164491545017
99.534014	-3.087535	0.0431577704131
99.523442	-3.072899	-0.0604908900361
99.512871	-3.058264	-0.150550955243
99.5023	-3.043628	-0.236620269781
99.491729	-3.028993	-0.322130174465
99.481158	-3.014357	-0.371201584317
99.470588	-2.999721	-0.346639865276
99.460017	-2.985085	-0.313957651953
99.449448	-2.970449	-0.300270423245
99.438878	-2.955813	-0.310174320552
99.428309	-2.941177	-0.344494848605
99.41774	-2.926541	-0.392142898652
99.407171	-2.911904	-0.384952562754
99.396602	-2.897268	-0.264482374107
99.386034	-2.882631	-0.100036349983
99.375466	-2.867994	0.060313831008
99.364899	-2.853358	0.215374662419
99.354331	-2.838721	0.375338621794
99.343764	-2.824084	0.543005230456
99.333197	-2.809447	0.658666631375
100.162154	-3.925634	0.689219576934
100.151564	-3.911006	0.624957930041
100.140973	-3.896378	0.534403701457
100.130383	-3.881749	0.417927880782
100.119793	-3.867121	0.278135383033
100.109204	-3.852492	0.123006077624
100.098615	-3.837864	-0.0214224087083
100.088026	-3.823235	-0.136536136891
100.077438	-3.808606	-0.244104338478
100.06685	-3.793977	-0.36731799082
100.056263	-3.779348	-0.511649322367
100.045675	-3.764718	-0.672213704608
100.035088	-3.750089	-0.826987103364
100.024502	-3.735459	-0.925217324347
100.013916	-3.720829	-0.929125695275
100.00333	-3.706199	-0.870087918829
99.992744	-3.691569	-0.796077619696
99.982159	-3.676939	-0.730414068072
99.971574	-3.662309	-0.680312670204
99.96099	-3.647679	-0.650725469742
99.950406	-3.633048	-0.656404256457
99.939822	-3.618417	-0.715086780353
99.929239	-3.603787	-0.818923021453
99.918656	-3.589156	-0.950148277228
99.908073	-3.574525	-1.10127342064
99.89749	-3.559894	-1.26918115114
99.886908	-3.545262	-1.43835844989
99.876327	-3.530631	-1.55376049189
99.865745	-3.515999	-1.57186549995
99.855164	-3.501368	-1.53345336262
99.844583	-3.486736	-1.49474092544
99.834003	-3.472104	-1.47617139157
99.823423	-3.457472	-1.48030271424
99.812843	-3.44284	-1.50000884667
99.802263	-3.428207	-1.50874997533
99.791684	-3.413575	-1.46146454529
99.781105	-3.398943	-1.35995404851
99.770527	-3.38431	-1.24883132569
99.759948	-3.369677	-1.15965007166
99.749371	-3.355044	-1.10191425219
99.738793	-3.340411	-1.07040249651
99.728216	-3.325778	-1.03278976796
99.717639	-3.311145	-0.947341881662
99.707062	-3.296512	-0.826851446151
99.696486	-3.281878	-0.715123467895
99.68591	-3.267245	-0.63455603555
99.675334	-3.252611	-0.588827956291
99.664758	-3.237977	-0.57289285178
99.654183	-3.223343	-0.568226341351
99.643608	-3.208709	-0.537063800726
99.633034	-3.194075	-0.461743320074
99.62246	-3.179441	-0.36497835744
99.611886	-3.164806	-0.268139709098
99.601312	-3.150172	-0.17416658712
99.590739	-3.135537	-0.0821579965832
99.580166	-3.120903	-0.00820089036314
99.569593	-3.106268	0.0115645794322
99.55902	-3.091633	-0.0243708723323
99.548448	-3.076998	-0.0809598371716
99.537876	-3.062363	-0.133329944353
99.527305	-3.047728	-0.178446795051
99.516733	-3.033092	-0.22052237574
99.506162	-3.018457	-0.257837257551
99.495591	-3.003821	-0.275003799361
99.485021	-2.989186	-0.265997800464
99.474451	-2.97455	-0.250705408201
99.463881	-2.959914	-0.245734929006
99.453311	-2.945278	-0.255412723973
99.442742	-2.930642	-0.275354163373
99.432172	-2.916006	-0.289002028105
99.421604	-2.901369	-0.264099035776
99.411035	-2.886733	-0.183989813551
99.400467	-2.872097	-0.0678999845273
99.389899	-2.85746	0.0595984691713
99.379331	-2.842823	0.188699383285
99.368763	-2.828187	0.316599221264
99.358196	-2.81355	0.430951916275
99.347629	-2.798913	0.491938202461
100.176594	-3.915088	0.755611060618
100.166003	-3.90046	0.683414803361
100.155412	-3.885832	0.586665666785
100.144822	-3.871204	0.468947141655
100.134232	-3.856576	0.334594621603
100.123643	-3.841947	0.190646368989
100.113054	-3.827319	0.0477565289078
100.102465	-3.81269	-0.0892307650529
100.091877	-3.798061	-0.226270666044
100.081289	-3.783432	-0.371186595101
100.070701	-3.768803	-0.524295262612
100.060114	-3.754174	-0.676319804758
100.049527	-3.739545	-0.806021924084
100.03894	-3.724915	-0.8849085277
100.028354	-3.710286	-0.897221046172
100.017768	-3.695656	-0.85498441405
100.007182	-3.681026	-0.784646586798
99.996597	-3.666396	-0.709227123626
99.986012	-3.651766	-0.643774737905
99.975428	-3.637136	-0.600360298258
99.964843	-3.622505	-0.591511804341
99.954259	-3.607875	-0.625526433298
99.943676	-3.593244	-0.699407628103
99.933093	-3.578614	-0.802514666849
99.92251	-3.563983	-0.92410717804
99.911927	-3.549352	-1.05372484094
99.901345	-3.53472	-1.17450173491
99.890763	-3.520089	-1.26130849159
99.880182	-3.505458	-1.30036387308
99.869601	-3.490826	-1.30431760495
99.85902	-3.476195	-1.29609283043
99.848439	-3.461563	-1.28924877304
99.837859	-3.446931	-1.28679051174
99.827279	-3.432299	-1.2828171195
99.816699	-3.417667	-1.26271578768
99.80612	-3.403035	-1.21134885907
99.795541	-3.388402	-1.13054612056
99.784962	-3.37377	-1.03707664168
99.774384	-3.359137	-0.947785319051
99.763806	-3.344505	-0.87069365656
99.753228	-3.329872	-0.804301896906
99.742651	-3.315239	-0.737010532088
99.732074	-3.300606	-0.658895123611
99.721497	-3.285973	-0.574357916242
99.710921	-3.271339	-0.497749177687
99.700345	-3.256706	-0.438965737356
99.689769	-3.242072	-0.400744260253
99.679193	-3.227439	-0.380086996038
99.668618	-3.212805	-0.368402683464
99.658043	-3.198171	-0.353657809005
99.647468	-3.183537	-0.331179974102
99.636894	-3.168903	-0.305694565356
99.62632	-3.154269	-0.282915676055
99.615746	-3.139634	-0.262810910297
99.605173	-3.125	-0.243725027511
99.594599	-3.110365	-0.228235470793
99.584027	-3.095731	-0.221964111115
99.573454	-3.081096	-0.223073636854
99.562882	-3.066461	-0.223126424991
99.55231	-3.051826	-0.2176933052
99.541738	-3.037191	-0.208744955758
99.531167	-3.022556	-0.200269328534
99.520595	-3.007921	-0.193134722706
99.510024	-2.993285	-0.185031595149
99.499454	-2.97865	-0.175964448243
99.488884	-2.964014	-0.171280061277
99.478313	-2.949378	-0.174881028402
99.467744	-2.934742	-0.185741548941
99.457174	-2.920107	-0.197487033933
99.446605	-2.90547	-0.198153170689
99.436036	-2.890834	-0.173167682468
99.425467	-2.876198	-0.116568212537
99.414899	-2.861562	-0.0350010376197
99.404331	-2.846925	0.0594945105547
99.393763	-2.832289	0.157324583977
99.383195	-2.817652	0.250285045107
99.372628	-2.803015	0.325411041691
99.362061	-2.788379	0.36393631635
100.191033	-3.904542	0.845484221257
100.180442	-3.889914	0.762601766267
100.169851	-3.875286	0.656018181593
100.159261	-3.860658	0.534320454492
100.148671	-3.84603	0.402359088098
100.138082	-3.831402	0.26282437015
100.127492	-3.816774	0.11705092624
100.116904	-3.802145	-0.0350493479629
100.106315	-3.787516	-0.19467650251
100.095727	-3.772888	-0.361268806602
100.085139	-3.758259	-0.530043075287
100.074552	-3.74363	-0.689277682178
100.063965	-3.729001	-0.81879784861
100.053378	-3.714371	-0.894956284185
100.042792	-3.699742	-0.904532753018
100.032206	-3.685112	-0.855704819804
100.02162	-3.670483	-0.771686111401
100.011034	-3.655853	-0.676470542972
100.000449	-3.641223	-0.588194988757
99.989865	-3.626593	-0.521900229274
99.979281	-3.611963	-0.491103920437
99.968697	-3.597332	-0.503998848174
99.958113	-3.582702	-0.557906517862
99.94753	-3.568071	-0.640932872924
99.936947	-3.55344	-0.738867646255
99.926364	-3.53881	-0.839179521058
99.915782	-3.524179	-0.930203198217
99.9052	-3.509547	-1.00175653659
99.894618	-3.494916	-1.04931572463
99.884037	-3.480285	-1.07622074566
99.873456	-3.465653	-1.08878154263
99.862875	-3.451022	-1.0917003187
99.852295	-3.43639	-1.08579868153
99.841715	-3.421758	-1.06826870332
99.831135	-3.407126	-1.03371910067
99.820556	-3.392494	-0.978242540487
99.809977	-3.377862	-0.903085841942
99.799398	-3.36323	-0.814134419052
99.788819	-3.348597	-0.718351898947
99.778241	-3.333965	-0.621404126074
99.767664	-3.319332	-0.527795309836
99.757086	-3.304699	-0.441735285403
99.746509	-3.290066	-0.367619199773
99.735932	-3.275433	-0.307571589396
99.725355	-3.2608	-0.260395884725
99.714779	-3.246167	-0.223128054133
99.704203	-3.231533	-0.194153821081
99.693628	-3.2169	-0.173846379309
99.683052	-3.202266	-0.164939854264
99.672477	-3.187633	-0.171430487144
99.661902	-3.172999	-0.19669679805
99.651328	-3.158365	-0.239153561855
99.640754	-3.143731	-0.293400739719
99.63018	-3.129097	-0.3526176022
99.619606	-3.114462	-0.407986691358
99.609033	-3.099828	-0.446985746214
99.59846	-3.085193	-0.45576821784
99.587887	-3.070559	-0.429108143071
99.577315	-3.055924	-0.374639090443
99.566743	-3.041289	-0.30736509715
99.556171	-3.026654	-0.238906577931
99.545599	-3.012019	-0.176871900393
99.535028	-2.997384	-0.126874325168
99.524457	-2.982749	-0.0939555054111
99.513887	-2.968113	-0.0804462664716
99.503316	-2.953478	-0.0836770423933
99.492746	-2.938842	-0.0973652455687
99.482176	-2.924207	-0.114120591874
99.471606	-2.909571	-0.126599051357
99.461037	-2.894935	-0.127022875978
99.450468	-2.880299	-0.108563471321
99.439899	-2.865663	-0.0689130516252
99.429331	-2.851027	-0.0115573000626
99.418762	-2.83639	0.0563606022577
99.408194	-2.821754	0.127018308553
99.397627	-2.807118	0.192369244656
99.387059	-2.792481	0.243078617156
99.376492	-2.777844	0.270025873371
100.205472	-3.893995	0.961299384115
100.194881	-3.879368	0.857927374613
100.18429	-3.86474	0.734246720723
100.1737	-3.850112	0.605335464161
100.16311	-3.835484	0.474838903948
100.15252	-3.820856	0.339557638192
100.141931	-3.806228	0.192228272088
100.131342	-3.7916	0.0273537860406
100.120753	-3.776971	-0.153943997611
100.110165	-3.762343	-0.344925805095
100.099577	-3.747714	-0.537882552742
100.088989	-3.733085	-0.721413809737
100.078402	-3.718456	-0.873336955671
100.067815	-3.703827	-0.960558950153
100.057229	-3.689198	-0.958997407249
100.046643	-3.674568	-0.88150184317
100.036057	-3.659939	-0.763687827213
100.025472	-3.645309	-0.634773805288
100.014887	-3.630679	-0.51226137407
100.004302	-3.616049	-0.411698782548
99.993717	-3.601419	-0.351961541443
99.983133	-3.586789	-0.347439892424
99.97255	-3.572159	-0.393867230085
99.961966	-3.557528	-0.470031649308
99.951383	-3.542898	-0.554683907686
99.9408	-3.528267	-0.634819655164
99.930218	-3.513636	-0.704855114157
99.919636	-3.499005	-0.765101101153
99.909054	-3.484374	-0.817290576474
99.898473	-3.469743	-0.859835278254
99.887892	-3.455112	-0.888095962382
99.877311	-3.44048	-0.899154136524
99.86673	-3.425849	-0.891709258413
99.85615	-3.411217	-0.86535254689
99.84557	-3.396585	-0.82086192322
99.834991	-3.381953	-0.760655143463
99.824412	-3.367321	-0.685969178747
99.813833	-3.352689	-0.595582066785
99.803254	-3.338057	-0.488562887406
99.792676	-3.323425	-0.368013583044
99.782098	-3.308792	-0.243767995882
99.771521	-3.294159	-0.135698323098
99.760943	-3.279527	-0.0644139258857
99.750367	-3.264894	-0.0315371349005
99.73979	-3.250261	-0.0171085188681
99.729213	-3.235628	-0.00299476042294
99.718637	-3.220994	0.0172254979707
99.708062	-3.206361	0.0398779926319
99.697486	-3.191728	0.0507947646027
99.686911	-3.177094	0.0266182458329
99.676336	-3.16246	-0.0472919218012
99.665762	-3.147826	-0.161647657024
99.655187	-3.133193	-0.297374503816
99.644613	-3.118559	-0.4423300213
99.63404	-3.103924	-0.583108030972
99.623466	-3.08929	-0.689536611282
99.612893	-3.074656	-0.718362087855
99.602321	-3.060021	-0.655462841659
99.591748	-3.045387	-0.533945269731
99.581176	-3.030752	-0.396480849906
99.570604	-3.016117	-0.263673531941
99.560032	-3.001482	-0.143956898403
99.549461	-2.986847	-0.0472700323187
99.53889	-2.972212	0.0121422095092
99.528319	-2.957577	0.0270844347923
99.517748	-2.942942	0.00967687851979
99.507178	-2.928306	-0.0201765571907
99.496608	-2.913671	-0.0483983097721
99.486038	-2.899035	-0.0679198390923
99.475469	-2.884399	-0.0743022500933
99.4649	-2.869763	-0.0645217235756
99.454331	-2.855128	-0.0380490040958
99.443762	-2.840491	0.00199321155592
99.433194	-2.825855	0.0500544051026
99.422626	-2.811219	0.0999536992049
99.412058	-2.796583	0.145461015323
99.40149	-2.781946	0.180413453619
99.390923	-2.76731	0.200043219578
100.21991	-3.883449	1.10283636157
100.209319	-3.868821	0.958575373932
100.198728	-3.854194	0.808517998076
100.188138	-3.839566	0.670953963899
100.177548	-3.824939	0.545612333777
100.166958	-3.810311	0.422127687538
100.156369	-3.795683	0.279867559804
100.14578	-3.781054	0.101842662444
100.135191	-3.766426	-0.105033818803
100.124602	-3.751798	-0.32366980241
100.114014	-3.737169	-0.546529696314
100.103427	-3.72254	-0.769015168911
100.09284	-3.707912	-0.970752289447
100.082253	-3.693283	-1.09136583625
100.071666	-3.678653	-1.06522966481
100.06108	-3.664024	-0.928082616146
100.050494	-3.649395	-0.75725827767
100.039908	-3.634765	-0.584809927112
100.029323	-3.620136	-0.418611413395
100.018738	-3.605506	-0.269651165283
100.008154	-3.590876	-0.168818826316
99.99757	-3.576246	-0.152598404607
99.986986	-3.561616	-0.212762268663
99.976402	-3.546986	-0.29970764493
99.965819	-3.532355	-0.381307014408
99.955236	-3.517725	-0.446263779483
99.944654	-3.503094	-0.495434488206
99.934072	-3.488463	-0.54189710262
99.92349	-3.473832	-0.599771200917
99.912908	-3.459201	-0.660611823772
99.902327	-3.44457	-0.704755809655
99.891746	-3.429939	-0.7234463726
99.881166	-3.415307	-0.714770837689
99.870585	-3.400676	-0.67964168471
99.860006	-3.386044	-0.62365361104
99.849426	-3.371412	-0.558112987191
99.838847	-3.356781	-0.485806516228
99.828268	-3.342149	-0.394674843091
99.817689	-3.327516	-0.274815440178
99.807111	-3.312884	-0.124942848864
99.796533	-3.298252	0.0444354987154
99.785955	-3.283619	0.192721002455
99.775378	-3.268987	0.260307332202
99.764801	-3.254354	0.246601706604
99.754224	-3.239721	0.215453906309
99.743648	-3.225088	0.203034006049
99.733071	-3.210455	0.216758317826
99.722495	-3.195822	0.251601466316
99.71192	-3.181189	0.284406484219
99.701345	-3.166555	0.257104398169
99.69077	-3.151922	0.126300062913
99.680195	-3.137288	-0.071532464794
99.669621	-3.122654	-0.290540207661
99.659047	-3.10802	-0.523594946004
99.648473	-3.093386	-0.76717333879
99.637899	-3.078752	-0.976108012162
99.627326	-3.064118	-1.03896985803
99.616753	-3.049484	-0.90689960363
99.606181	-3.034849	-0.689929357248
99.595608	-3.020215	-0.475181552486
99.585036	-3.00558	-0.277917066924
99.574465	-2.990945	-0.0966908108403
99.563893	-2.97631	0.0576535511055
99.553322	-2.961675	0.149164456621
99.542751	-2.94704	0.152724772963
99.53218	-2.932405	0.104264802969
99.52161	-2.91777	0.0493107997426
99.51104	-2.903134	0.00555542616469
99.50047	-2.888499	-0.0237774919384
99.489901	-2.873863	-0.0383038567233
99.479331	-2.859228	-0.0372377304802
99.468762	-2.844592	-0.0205557137384
99.458194	-2.829956	0.00759336475668
99.447625	-2.81532	0.0415369773789
99.437057	-2.800684	0.0764419795474
99.426489	-2.786048	0.107846727718
99.415921	-2.771411	0.131837208478
99.405354	-2.756775	0.146085877347
100.234349	-3.872902	1.24373341492
100.223757	-3.858275	1.03587121247
100.213166	-3.843647	0.858203461557
100.202576	-3.82902	0.715491737113
100.191985	-3.814392	0.601914740559
100.181396	-3.799765	0.505159022425
100.170806	-3.785137	0.384556878709
100.160217	-3.770509	0.187243382826
100.149628	-3.755881	-0.053172345534
100.13904	-3.741252	-0.296975448049
100.128452	-3.726624	-0.544296555266
100.117864	-3.711995	-0.804541970492
100.107277	-3.697367	-1.0793806794
100.09669	-3.682738	-1.2846932028
100.086103	-3.668109	-1.19624363994
100.075517	-3.65348	-0.964666560178
100.064931	-3.638851	-0.738871015693
100.054345	-3.624221	-0.527696696784
100.04376	-3.609592	-0.319854801708
100.033175	-3.594962	-0.110228893684
100.02259	-3.580333	0.0604460217591
100.012006	-3.565703	0.0754486213357
100.001422	-3.551073	-0.0361410302452
99.990838	-3.536443	-0.148444360033
99.980255	-3.521812	-0.232952778367
99.969672	-3.507182	-0.284934419028
99.959089	-3.492551	-0.30677653431
99.948507	-3.477921	-0.326569402869
99.937925	-3.46329	-0.399176174481
99.927344	-3.448659	-0.488812984085
99.916762	-3.434028	-0.54947936385
99.906181	-3.419397	-0.574871962798
99.895601	-3.404766	-0.565099552645
99.88502	-3.390134	-0.520396848153
99.87444	-3.375503	-0.446308334098
99.863861	-3.360871	-0.373496361127
99.853281	-3.34624	-0.314127860766
99.842702	-3.331608	-0.226698827617
99.832124	-3.316976	-0.0969590780665
99.821545	-3.302344	0.0806356729415
99.810967	-3.287711	0.307564777786
99.800389	-3.273079	0.539367938959
99.789812	-3.258447	0.5987250826
99.779235	-3.243814	0.494606164715
99.768658	-3.229181	0.40985713289
99.758081	-3.214548	0.372158294386
99.747505	-3.199916	0.380492747174
99.736929	-3.185283	0.431953752876
99.726353	-3.170649	0.515977836852
99.715778	-3.156016	0.525828852724
99.705203	-3.141383	0.303302068997
99.694628	-3.126749	0.0169829288708
99.684054	-3.112116	-0.269004617175
99.67348	-3.097482	-0.571070476995
99.662906	-3.082848	-0.91271202626
99.652332	-3.068214	-1.28270083206
99.641759	-3.05358	-1.42225860395
99.631186	-3.038946	-1.12999342975
99.620613	-3.024312	-0.804349973395
99.610041	-3.009677	-0.526879069568
99.599469	-2.995043	-0.281579037056
99.588897	-2.980408	-0.0460418070754
99.578325	-2.965773	0.183736250625
99.567754	-2.951138	0.326559611243
99.557183	-2.936504	0.283196277376
99.546612	-2.921868	0.181795465426
99.536042	-2.907233	0.0991669668352
99.525471	-2.892598	0.0417625325814
99.514902	-2.877963	0.00463102517562
99.504332	-2.863327	-0.0168754553765
99.493763	-2.848692	-0.0238387188584
99.483193	-2.834056	-0.012472158494
99.472625	-2.81942	0.00803088411038
99.462056	-2.804784	0.0319952360992
99.451488	-2.790148	0.0561390408173
99.44092	-2.775512	0.0774320660284
99.430352	-2.760876	0.0932730925109
99.419784	-2.74624	0.102757409924
100.248786	-3.862355	1.27995644778
100.238195	-3.847728	1.04413177093
100.227604	-3.833101	0.860330559516
100.217013	-3.818473	0.721695889339
100.206423	-3.803846	0.621030646133
100.195833	-3.789219	0.552970297508
100.185243	-3.774591	0.494788241672
100.174654	-3.759963	0.249023946788
100.164065	-3.745335	-0.0152825390829
100.153477	-3.730707	-0.267300762114
100.142889	-3.716079	-0.518063392588
100.132301	-3.70145	-0.783106024578
100.121713	-3.686822	-1.07266671818
100.111126	-3.672193	-1.34076086692
100.100539	-3.657564	-1.19627202798
100.089953	-3.642935	-0.931912358936
100.079367	-3.628306	-0.6905781197
100.068781	-3.613677	-0.466729656683
100.058196	-3.599048	-0.242068205362
100.047611	-3.584418	0.000472383530168
100.037026	-3.569789	0.257901581969
100.026442	-3.555159	0.242750477517
100.015858	-3.540529	0.0833962082534
100.005274	-3.525899	-0.0413939066597
99.99469	-3.511269	-0.125485303058
99.984107	-3.496639	-0.169731879506
99.973525	-3.482009	-0.174126470066
99.962942	-3.467378	-0.147527778657
99.95236	-3.452748	-0.255197043844
99.941779	-3.438117	-0.364337781396
99.931197	-3.423486	-0.433020787792
99.920616	-3.408855	-0.461715519068
99.910035	-3.394224	-0.452243402736
99.899455	-3.379593	-0.404426747861
99.888875	-3.364961	-0.319755050602
99.878295	-3.35033	-0.239461945731
99.867716	-3.335698	-0.19274738914
99.857137	-3.321067	-0.10689972501
99.846558	-3.306435	0.0264754815669
99.835979	-3.291803	0.213133170103
99.825401	-3.277171	0.460525592063
99.814823	-3.262539	0.753872738072
99.804246	-3.247906	0.799486663112
99.793668	-3.233274	0.639905997531
99.783091	-3.218641	0.533013636714
99.772515	-3.204009	0.48365961192
99.761938	-3.189376	0.48484453142
99.751362	-3.174743	0.532887737576
99.740786	-3.16011	0.62260433439
99.730211	-3.145477	0.658862226905
99.719636	-3.130844	0.386445587869
99.709061	-3.11621	0.0737088247089
99.698486	-3.101577	-0.231534286532
99.687912	-3.086943	-0.551871394728
99.677338	-3.072309	-0.916039873632
99.666765	-3.057676	-1.32557155395
99.656191	-3.043042	-1.50192425835
99.645618	-3.028408	-1.16377686345
99.635045	-3.013774	-0.822630502586
99.624473	-2.999139	-0.536333749766
99.6139	-2.984505	-0.281673453562
99.603329	-2.969871	-0.0293985142179
99.592757	-2.955236	0.241472523986
99.582185	-2.940601	0.473126700275
99.571614	-2.925966	0.337632310218
99.561044	-2.911332	0.207372735453
99.550473	-2.896697	0.11527347039
99.539903	-2.882061	0.0549965734867
99.529333	-2.867426	0.0170381690334
99.518763	-2.852791	-0.00547002346549
99.508193	-2.838156	-0.0147247815261
99.497624	-2.82352	-0.00820536508232
99.487055	-2.808884	0.00590850309606
99.476487	-2.794249	0.0223266102986
99.465918	-2.779613	0.0386388920423
99.45535	-2.764977	0.052796531534
99.444782	-2.750341	0.0631316640759
99.434215	-2.735705	0.0689382459598
100.263224	-3.851808	1.13548395479
100.252632	-3.837181	0.960785696137
100.242041	-3.822554	0.805208772269
100.23145	-3.807927	0.681443255354
100.22086	-3.7933	0.587083148364
100.21027	-3.778672	0.513267826413
100.19968	-3.764045	0.416027945281
100.189091	-3.749417	0.224785456986
100.178502	-3.734789	-0.00827115517891
100.167913	-3.720161	-0.238939503044
100.157325	-3.705533	-0.466412499047
100.146737	-3.690905	-0.695434840346
100.13615	-3.676276	-0.91476107602
100.125562	-3.661648	-1.04750769545
100.114975	-3.647019	-0.990736515599
100.104389	-3.632391	-0.812860433201
100.093803	-3.617762	-0.609090975175
100.083217	-3.603133	-0.405282759941
100.072631	-3.588504	-0.198889999247
100.062046	-3.573874	0.0114005020139
100.051461	-3.559245	0.183668821299
100.040877	-3.544615	0.203272691791
100.030293	-3.529986	0.109203984623
100.019709	-3.515356	0.00899231566655
100.009126	-3.500726	-0.065352951779
99.998543	-3.486096	-0.109375054902
99.98796	-3.471466	-0.126843611001
99.977377	-3.456835	-0.146347246428
99.966795	-3.442205	-0.214987605932
99.956213	-3.427574	-0.299862914211
99.945632	-3.412944	-0.360232280586
99.935051	-3.398313	-0.387075776708
99.92447	-3.383682	-0.379842862326
99.913889	-3.369051	-0.339312851515
99.903309	-3.35442	-0.272353126857
99.892729	-3.339788	-0.202644756084
99.88215	-3.325157	-0.133801109397
99.87157	-3.310525	-0.0410846523865
99.860992	-3.295894	0.0893834421875
99.850413	-3.281262	0.260887755955
99.839835	-3.26663	0.467373052745
99.829257	-3.251998	0.658047783922
99.818679	-3.237366	0.712834638336
99.808102	-3.222733	0.647688604742
99.797524	-3.208101	0.573993654693
99.786948	-3.193469	0.53205682113
99.776371	-3.178836	0.525149620302
99.765795	-3.164203	0.546783131904
99.755219	-3.14957	0.573581473117
99.744644	-3.134937	0.525042730482
99.734068	-3.120304	0.343928400477
99.723494	-3.105671	0.0912894707449
99.712919	-3.091038	-0.179920407873
99.702345	-3.076404	-0.464314491108
99.69177	-3.061771	-0.763952101869
99.681197	-3.047137	-1.03349730937
99.670623	-3.032503	-1.1180698196
99.66005	-3.017869	-0.969414926319
99.649477	-3.003235	-0.733727927847
99.638904	-2.988601	-0.501848268383
99.628332	-2.973967	-0.283509291699
99.61776	-2.959333	-0.0679930698485
99.607188	-2.944698	0.142164111993
99.596617	-2.930064	0.268956988712
99.586046	-2.915429	0.243286512503
99.575475	-2.900794	0.161354011702
99.564904	-2.88616	0.0917906410828
99.554334	-2.871525	0.0442080544122
99.543763	-2.85689	0.0142878230502
99.533194	-2.842254	-0.00267787966848
99.522624	-2.827619	-0.00890539020792
99.512055	-2.812984	-0.0059822688117
99.501486	-2.798348	0.00248103790624
99.490917	-2.783713	0.0129476485984
99.480349	-2.769077	0.0233617531734
99.46978	-2.754441	0.0324622148908
99.459212	-2.739805	0.0396007721713
99.448645	-2.725169	0.0452635591563
100.277661	-3.84126	0.927202889082
100.267069	-3.826634	0.819647520361
100.256478	-3.812007	0.705873986255
100.245887	-3.79738	0.602986799273
100.235297	-3.782753	0.512682943153
100.224707	-3.768126	0.424703381879
100.214117	-3.753498	0.313682773483
100.203527	-3.738871	0.159841762826
100.192938	-3.724243	-0.0230873938165
100.18235	-3.709615	-0.213826948605
100.171761	-3.694987	-0.401948672286
100.161173	-3.680359	-0.579720840735
100.150586	-3.665731	-0.726883358875
100.139998	-3.651103	-0.801666277101
100.129411	-3.636474	-0.773363346718
100.118825	-3.621846	-0.662358845497
100.108238	-3.607217	-0.510410588693
100.097652	-3.592588	-0.344330012789
100.087067	-3.577959	-0.176188804417
100.076482	-3.56333	-0.0199544840409
100.065897	-3.548701	0.0905934006019
100.055312	-3.534071	0.120475525076
100.044728	-3.519442	0.0816748838747
100.034144	-3.504812	0.0175801948516
100.02356	-3.490182	-0.0431498877838
100.012977	-3.475552	-0.0902938871115
100.002394	-3.460922	-0.12643624946
99.991812	-3.446292	-0.165770370279
99.98123	-3.431662	-0.220242514474
99.970648	-3.417032	-0.279340461486
99.960066	-3.402401	-0.325006727178
99.949485	-3.38777	-0.347246972116
99.938904	-3.37314	-0.343040722084
99.928323	-3.358509	-0.312699725944
99.917743	-3.343878	-0.261090392857
99.907163	-3.329246	-0.195972134786
99.896583	-3.314615	-0.118192829195
99.886004	-3.299984	-0.020378962604
99.875425	-3.285352	0.102921239909
99.864846	-3.270721	0.249784816626
99.854268	-3.256089	0.405714512098
99.84369	-3.241457	0.533601650996
99.833112	-3.226825	0.592461061405
99.822535	-3.212193	0.586777798814
99.811957	-3.197561	0.55653013452
99.801381	-3.182928	0.530759966202
99.790804	-3.168296	0.518387677559
99.780228	-3.153663	0.513476126658
99.769652	-3.13903	0.494388110541
99.759076	-3.124398	0.424692696079
99.748501	-3.109765	0.286621424904
99.737926	-3.095132	0.0975972175156
99.727351	-3.080498	-0.115747491358
99.716777	-3.065865	-0.3375543685
99.706202	-3.051232	-0.551864593435
99.695629	-3.036598	-0.71820304814
99.685055	-3.021965	-0.779159501714
99.674482	-3.007331	-0.720988831619
99.663909	-2.992697	-0.592124638048
99.653336	-2.978063	-0.44038260137
99.642763	-2.963429	-0.285701262447
99.632191	-2.948795	-0.133939068143
99.621619	-2.934161	0.00040691492263
99.611048	-2.919526	0.0830319430934
99.600477	-2.904892	0.0974107057906
99.589905	-2.890257	0.071494378239
99.579335	-2.875622	0.0390702547568
99.568764	-2.860988	0.0142559698392
99.558194	-2.846353	-0.00110535624625
99.547624	-2.831718	-0.00868530533093
99.537054	-2.817082	-0.0102123233349
99.526485	-2.802447	-0.0074118752366
99.515916	-2.787812	-0.00219599113537
99.505347	-2.773176	0.00377658918863
99.494778	-2.758541	0.00949943703726
99.48421	-2.743905	0.0145996697011
99.473642	-2.729269	0.019250160174
99.463074	-2.714634	0.0241296792802
100.292098	-3.830713	0.728746689867
100.281506	-3.816086	0.663235318007
100.270915	-3.80146	0.585017624336
100.260324	-3.786833	0.503780052459
100.249733	-3.772206	0.421589095903
100.239143	-3.757579	0.33318789946
100.228553	-3.742952	0.22893943283
100.217964	-3.728324	0.102933803109
100.207374	-3.713697	-0.0401092071285
100.196786	-3.699069	-0.190348338065
100.186197	-3.684441	-0.337899996852
100.175609	-3.669813	-0.471374105469
100.165021	-3.655185	-0.573141376392
100.154434	-3.640557	-0.621252125906
100.143847	-3.625929	-0.603303501554
100.13326	-3.6113	-0.526993065239
100.122674	-3.596672	-0.413371786963
100.112088	-3.582043	-0.282767586949
100.101502	-3.567414	-0.151324196918
100.090917	-3.552785	-0.0358625901128
100.080332	-3.538156	0.0431341645527
100.069747	-3.523527	0.0715761721324
100.059163	-3.508898	0.0543813019055
100.048579	-3.494268	0.0107864313557
100.037995	-3.479639	-0.0413835482098
100.027412	-3.465009	-0.0922719086503
100.016829	-3.450379	-0.139975101501
100.006246	-3.435749	-0.187371446329
99.995664	-3.421119	-0.236059161274
99.985082	-3.406489	-0.2813834834
99.9745	-3.391858	-0.316117819558
99.963919	-3.377228	-0.334606840296
99.953338	-3.362597	-0.333865667458
99.942757	-3.347966	-0.312455748922
99.932177	-3.333335	-0.270617121142
99.921596	-3.318704	-0.209422616965
99.911017	-3.304073	-0.129525155868
99.900437	-3.289442	-0.0308622518138
99.889858	-3.274811	0.0849835051444
99.879279	-3.260179	0.212154296168
99.868701	-3.245548	0.336923855139
99.858123	-3.230916	0.438129796451
99.847545	-3.216284	0.498332810161
99.836967	-3.201652	0.51827029353
99.82639	-3.18702	0.513885138177
99.815813	-3.172388	0.5012944639
99.805236	-3.157755	0.487530569359
99.79466	-3.143123	0.469019175691
99.784084	-3.12849	0.433129279393
99.773508	-3.113858	0.364151713308
99.762933	-3.099225	0.255464527284
99.752358	-3.084592	0.11490404493
99.741783	-3.069959	-0.0426475849385
99.731208	-3.055326	-0.202252622577
99.720634	-3.040693	-0.34762495118
99.71006	-3.026059	-0.456437649466
99.699486	-3.011426	-0.508230322783
99.688913	-2.996792	-0.4992194936
99.67834	-2.982158	-0.446467944454
99.667767	-2.967525	-0.370405172925
99.657195	-2.952891	-0.284825197313
99.646622	-2.938257	-0.198288104642
99.63605	-2.923623	-0.120808243377
99.625479	-2.908988	-0.0651900719
99.614907	-2.894354	-0.0361916070685
99.604336	-2.87972	-0.0270508769346
99.593765	-2.865085	-0.026178942456
99.583195	-2.85045	-0.0261256924787
99.572624	-2.835816	-0.0241065122543
99.562054	-2.821181	-0.0202200987318
99.551485	-2.806546	-0.0154805077003
99.540915	-2.791911	-0.011004145663
99.530346	-2.777275	-0.0075206872829
99.519777	-2.76264	-0.00513476099176
99.509208	-2.748005	-0.0036340106637
99.49864	-2.733369	-0.00244133710528
99.488072	-2.718734	-0.000550020882541
99.477504	-2.704098	0.00325439530108
100.306534	-3.820165	0.548843398768
100.295943	-3.805538	0.511106048334
100.285351	-3.790912	0.460763277142
100.27476	-3.776285	0.399846975518
100.264169	-3.761659	0.329541094091
100.253579	-3.747032	0.249693710865
100.242989	-3.732405	0.159510799554
100.232399	-3.717777	0.0586121115198
100.22181	-3.70315	-0.0514940071696
100.211221	-3.688523	-0.16683063672
100.200633	-3.673895	-0.280543724233
100.190045	-3.659267	-0.382448974324
100.179457	-3.644639	-0.458471969716
100.168869	-3.630011	-0.49320809547
100.158282	-3.615383	-0.47804899682
100.147695	-3.600755	-0.417299721876
100.137109	-3.586127	-0.325522492791
100.126523	-3.571498	-0.219117199242
100.115937	-3.556869	-0.113075741856
100.105351	-3.542241	-0.022388589268
100.094766	-3.527612	0.0381483366034
100.084182	-3.512983	0.0598109186108
100.073597	-3.498353	0.0455075883864
100.063013	-3.483724	0.00645352942446
100.052429	-3.469095	-0.0455760841478
100.041846	-3.454465	-0.102421318667
100.031263	-3.439835	-0.159141153313
100.02068	-3.425205	-0.212243037678
100.010098	-3.410576	-0.258652340008
99.999515	-3.395945	-0.296285072254
99.988934	-3.381315	-0.324079574869
99.978352	-3.366685	-0.341016133605
99.967771	-3.352054	-0.345223671823
99.95719	-3.337424	-0.333346561671
99.94661	-3.322793	-0.300589958262
99.93603	-3.308162	-0.24310230662
99.92545	-3.293531	-0.16180032898
99.91487	-3.2789	-0.0619313892999
99.904291	-3.264269	0.0500911585005
99.893712	-3.249638	0.166981132693
99.883134	-3.235006	0.277944889591
99.872555	-3.220375	0.369172608369
99.861977	-3.205743	0.429641147397
99.8514	-3.191111	0.458671313126
99.840822	-3.176479	0.465309885479
99.830245	-3.161847	0.460023689917
99.819669	-3.147215	0.447927848865
99.809092	-3.132583	0.427290757362
99.798516	-3.11795	0.391133847838
99.78794	-3.103318	0.331847146876
99.777365	-3.088685	0.247416427629
99.766789	-3.074052	0.144279726545
99.756214	-3.059419	0.0333584932989
99.74564	-3.044786	-0.073630142731
99.735065	-3.030153	-0.166217213636
99.724491	-3.01552	-0.236705036223
99.713918	-3.000887	-0.283140705263
99.703344	-2.986253	-0.307590308739
99.692771	-2.97162	-0.312712719246
99.682198	-2.956986	-0.302337613362
99.671625	-2.942352	-0.281550215711
99.661053	-2.927718	-0.254968027381
99.650481	-2.913084	-0.22432987332
99.639909	-2.89845	-0.189994022261
99.629338	-2.883816	-0.153617674501
99.618766	-2.869182	-0.119883259028
99.608195	-2.854547	-0.0916126363706
99.597625	-2.839913	-0.0684224328406
99.587054	-2.825278	-0.048856268559
99.576484	-2.810643	-0.0325850017056
99.565914	-2.796009	-0.0206282728964
99.555345	-2.781374	-0.0139268049031
99.544775	-2.766739	-0.0120506429155
99.534206	-2.752103	-0.0133393610365
99.523638	-2.737468	-0.016344598293
99.513069	-2.722833	-0.0197496634676
99.502501	-2.708197	-0.0215450179993
99.491933	-2.693562	-0.0191699495667
100.320971	-3.809617	0.382371886324
100.310379	-3.794991	0.36979306055
100.299787	-3.780364	0.344580505038
100.289196	-3.765738	0.302546441323
100.278605	-3.751111	0.244473102766
100.268015	-3.736484	0.174784766596
100.257425	-3.721858	0.100177670166
100.246835	-3.707231	0.0243640970161
100.236246	-3.692603	-0.0554151952585
100.225657	-3.677976	-0.141005790186
100.215068	-3.663349	-0.228936949037
100.20448	-3.648721	-0.311322667682
100.193892	-3.634093	-0.376092722046
100.183304	-3.619466	-0.406511285911
100.172717	-3.604838	-0.389905274899
100.16213	-3.590209	-0.330811485995
100.151543	-3.575581	-0.246479447852
100.140957	-3.560953	-0.152127097004
100.130371	-3.546324	-0.0592766795288
100.119786	-3.531696	0.0195665203272
100.109201	-3.517067	0.0695132143219
100.098616	-3.502438	0.0807173040542
100.088031	-3.487809	0.0574350734097
100.077447	-3.47318	0.0116402261561
100.066863	-3.45855	-0.0476340251385
100.05628	-3.443921	-0.11454064403
100.045696	-3.429291	-0.182925705106
100.035114	-3.414662	-0.243979189791
100.024531	-3.400032	-0.289509552668
100.013949	-3.385402	-0.319910334197
100.003367	-3.370772	-0.341541032897
99.992786	-3.356142	-0.358490793588
99.982204	-3.341511	-0.370328334073
99.971623	-3.326881	-0.372267138204
99.961043	-3.31225	-0.352530062295
99.950463	-3.29762	-0.298230944448
99.939883	-3.282989	-0.211192347267
99.929303	-3.268358	-0.106163140294
99.918724	-3.253727	0.00665838171248
99.908145	-3.239096	0.121550322694
99.897566	-3.224464	0.230922633176
99.886988	-3.209833	0.3223965921
99.87641	-3.195201	0.38286387135
99.865832	-3.18057	0.410800120392
99.855254	-3.165938	0.417747183461
99.844677	-3.151306	0.41475114473
99.8341	-3.136674	0.406138964867
99.823524	-3.122042	0.390764887295
99.812948	-3.10741	0.363420530783
99.802372	-3.092777	0.317679121918
99.791796	-3.078145	0.253191540242
99.781221	-3.063512	0.178684284255
99.770646	-3.048879	0.105090297526
99.760071	-3.034247	0.0419263792495
99.749496	-3.019614	-0.0048694729749
99.738922	-3.004981	-0.0396189820178
99.728348	-2.990347	-0.0787826503024
99.717775	-2.975714	-0.133370276415
99.707202	-2.961081	-0.191190709078
99.696628	-2.946447	-0.239550700455
99.686056	-2.931814	-0.278027959141
99.675483	-2.91718	-0.308926686931
99.664911	-2.902546	-0.324989659012
99.654339	-2.887912	-0.309978588648
99.643768	-2.873278	-0.262292665521
99.633196	-2.858644	-0.203148703151
99.622625	-2.84401	-0.149953499077
99.612055	-2.829375	-0.10622338814
99.601484	-2.814741	-0.0702968173225
99.590914	-2.800106	-0.0412686447737
99.580344	-2.785471	-0.0213989913907
99.569774	-2.770837	-0.0132607529259
99.559205	-2.756202	-0.0144353964309
99.548636	-2.741567	-0.0202065747907
99.538067	-2.726931	-0.0283058865372
99.527498	-2.712296	-0.0375811408093
99.51693	-2.697661	-0.0451598497939
99.506362	-2.683025	-0.0451860310302
100.335406	-3.799069	0.22663192893
100.324814	-3.784443	0.245790302083
100.314223	-3.769816	0.246063987027
100.303632	-3.75519	0.221398462323
100.293041	-3.740564	0.172973941039
100.28245	-3.725937	0.108524240674
100.27186	-3.71131	0.0471350844733
100.26127	-3.696683	5.47403017274e-05
100.250681	-3.682056	-0.0487984936413
100.240092	-3.667429	-0.108553102761
100.229503	-3.652802	-0.177109404199
100.218915	-3.638175	-0.249017547719
100.208326	-3.623547	-0.315500457765
100.197739	-3.608919	-0.353358367706
100.187151	-3.594292	-0.330617016698
100.176564	-3.579664	-0.258774840743
100.165978	-3.565036	-0.171738937555
100.155391	-3.550407	-0.0815702240503
100.144805	-3.535779	0.0066823673165
100.13422	-3.52115	0.0851704035998
100.123635	-3.506522	0.133176245612
100.11305	-3.491893	0.128516447303
100.102465	-3.477264	0.086347352494
100.091881	-3.462635	0.0274446177987
100.081297	-3.448006	-0.0431538083353
100.070713	-3.433377	-0.123852338997
100.06013	-3.418747	-0.210158274234
100.049547	-3.404118	-0.286055570691
100.038964	-3.389488	-0.32930685893
100.028382	-3.374858	-0.346848407668
100.0178	-3.360229	-0.360423247476
100.007218	-3.345598	-0.37781778324
99.996637	-3.330968	-0.399430487502
99.986056	-3.316338	-0.422164528137
99.975475	-3.301708	-0.42677139055
99.964895	-3.287077	-0.373171347275
99.954315	-3.272446	-0.269932229564
99.943735	-3.257816	-0.156286642209
99.933156	-3.243185	-0.0408634098409
99.922577	-3.228554	0.0761000703137
99.911998	-3.213923	0.192467728422
99.90142	-3.199291	0.295123331891
99.890841	-3.18466	0.355685457457
99.880264	-3.170028	0.370795442185
99.869686	-3.155397	0.369674010843
99.859109	-3.140765	0.366163357818
99.848532	-3.126133	0.362173697307
99.837955	-3.111501	0.356428021352
99.827379	-3.096869	0.344526812696
99.816803	-3.082237	0.314080357881
99.806227	-3.067604	0.262828135996
99.795652	-3.052972	0.209324433918
99.785077	-3.038339	0.164778181035
99.774502	-3.023707	0.137606778579
99.763927	-3.009074	0.134403490504
99.753353	-2.994441	0.146651446763
99.742779	-2.979808	0.124489599559
99.732205	-2.965175	0.0287629836222
99.721632	-2.950542	-0.08448920465
99.711059	-2.935908	-0.183659016515
99.700486	-2.921275	-0.272552950719
99.689913	-2.906641	-0.359821682506
99.679341	-2.892007	-0.434399498785
99.668769	-2.877374	-0.439333420741
99.658197	-2.86274	-0.361275560447
99.647626	-2.848106	-0.270269273803
99.637055	-2.833471	-0.194922936264
99.626484	-2.818837	-0.13506328688
99.615913	-2.804203	-0.0858126037819
99.605343	-2.789568	-0.04397202774
99.594773	-2.774934	-0.0143858058884
99.584203	-2.760299	-0.00767888404348
99.573634	-2.745664	-0.0148681596845
99.563065	-2.73103	-0.0253958999813
99.552496	-2.716395	-0.0381676722383
99.541927	-2.701759	-0.0538597123901
99.531358	-2.687124	-0.0707763920005
99.52079	-2.672489	-0.076150399442
100.349842	-3.78852	0.09904535172
100.33925	-3.773894	0.153141900581
100.328658	-3.759268	0.175612209743
100.318067	-3.744642	0.166473071853
100.307476	-3.730016	0.127081722061
100.296885	-3.715389	0.0606207997853
100.286295	-3.700763	0.00351825950309
100.275705	-3.686136	-0.00378223464407
100.265116	-3.671509	-0.0242316622693
100.254526	-3.656882	-0.0631334003316
100.243938	-3.642255	-0.116485821604
100.233349	-3.627628	-0.180530911635
100.222761	-3.613001	-0.252613789884
100.212173	-3.598373	-0.32013157566
100.201586	-3.583745	-0.275612221566
100.190999	-3.569118	-0.184097171381
100.180412	-3.55449	-0.0943910592403
100.169825	-3.539862	-0.00814999994033
100.159239	-3.525233	0.0760009971746
100.148654	-3.510605	0.157733914803
100.138068	-3.495977	0.2224715841
100.127483	-3.481348	0.185523017742
100.116899	-3.466719	0.122497626645
100.106314	-3.45209	0.0516772906912
100.09573	-3.437461	-0.0287709202715
100.085146	-3.422832	-0.121914421567
100.074563	-3.408203	-0.229283410205
100.06398	-3.393574	-0.33548125283
100.053397	-3.378944	-0.367389225034
100.042815	-3.364315	-0.364334789551
100.032233	-3.349685	-0.370669897897
100.021651	-3.335055	-0.388864393308
100.01107	-3.320425	-0.417900614886
100.000489	-3.305795	-0.457912974208
99.989908	-3.291165	-0.502714603553
99.979327	-3.276534	-0.438621750181
99.968747	-3.261904	-0.319606894963
99.958167	-3.247273	-0.203953534826
99.947588	-3.232642	-0.0907319132552
99.937009	-3.218011	0.0251200871389
99.92643	-3.20338	0.147931399805
99.915851	-3.188749	0.275470501601
99.905273	-3.174118	0.335950634373
99.894695	-3.159487	0.323340782356
99.884117	-3.144855	0.313706055061
99.87354	-3.130224	0.311106777974
99.862963	-3.115592	0.312897520112
99.852386	-3.10096	0.316896713916
99.84181	-3.086328	0.321066847051
99.831234	-3.071696	0.306931296959
99.820658	-3.057064	0.264552248498
99.810083	-3.042431	0.228159458683
99.799507	-3.027799	0.204900090396
99.788932	-3.013167	0.202330977498
99.778358	-2.998534	0.230008301603
99.767783	-2.983901	0.292619050296
99.757209	-2.969268	0.321106850982
99.746635	-2.954635	0.14934428658
99.736062	-2.940002	-0.00598082492793
99.725489	-2.925369	-0.136398417647
99.714916	-2.910736	-0.256075126778
99.704343	-2.896102	-0.381780942056
99.693771	-2.881469	-0.521969858963
99.683199	-2.866835	-0.554424793734
99.672627	-2.852201	-0.420504450681
99.662055	-2.837567	-0.306853925909
99.651484	-2.822933	-0.219875061528
99.640913	-2.808299	-0.152168925031
99.630343	-2.793665	-0.0961790986565
99.619772	-2.779031	-0.0463461175153
99.609202	-2.764396	-0.00217930871726
99.598632	-2.749762	-0.0043714698426
99.588063	-2.735127	-0.0163367874131
99.577493	-2.720492	-0.0291003624545
99.566924	-2.705857	-0.0437932483604
99.556355	-2.691223	-0.0625631444121
99.545787	-2.676587	-0.0867035695941
99.535218	-2.661952	-0.106019001925
100.364277	-3.777971	0.0480877327636
100.353685	-3.763346	0.107797868106
100.343093	-3.74872	0.140942214081
100.332502	-3.734094	0.145132322604
100.321911	-3.719468	0.121023737188
100.31132	-3.704842	0.0728430896301
100.30073	-3.690215	0.0349055602076
100.29014	-3.675589	0.0347684906127
100.27955	-3.660962	0.0265421997297
100.268961	-3.646335	0.000350048976964
100.258372	-3.631708	-0.0406694681748
100.247783	-3.617081	-0.0928697212029
100.237195	-3.602454	-0.152184482891
100.226607	-3.587827	-0.197330351148
100.21602	-3.573199	-0.165587820815
100.205432	-3.558571	-0.0880435462577
100.194846	-3.543944	-0.00850203910613
100.184259	-3.529316	0.0674527978626
100.173673	-3.514688	0.140093212406
100.163087	-3.50006	0.207114734751
100.152502	-3.485431	0.246429529432
100.141916	-3.470803	0.218572338621
100.131332	-3.456174	0.155990063404
100.120747	-3.441546	0.082197995565
100.110163	-3.426917	-0.00194357341508
100.099579	-3.412288	-0.0989412043552
100.088996	-3.397659	-0.210198457633
100.078413	-3.383029	-0.322175548659
100.06783	-3.3684	-0.35573196711
100.057247	-3.353771	-0.354652670321
100.046665	-3.339141	-0.363796923922
100.036083	-3.324511	-0.38495787444
100.025502	-3.309881	-0.415921765334
100.014921	-3.295251	-0.45311574232
100.00434	-3.280621	-0.476839463222
99.993759	-3.265991	-0.434643934496
99.983179	-3.251361	-0.343146435194
99.972599	-3.23673	-0.24339219811
99.96202	-3.2221	-0.142552087799
99.95144	-3.207469	-0.0376500440416
99.940861	-3.192838	0.0745523668907
99.930283	-3.178207	0.189027313524
99.919704	-3.163576	0.246431459701
99.909126	-3.148945	0.244678490196
99.898549	-3.134313	0.242038372149
99.887971	-3.119682	0.24680639991
99.877394	-3.10505	0.256313090687
99.866817	-3.090419	0.267545516097
99.856241	-3.075787	0.276072831103
99.845665	-3.061155	0.270370055396
99.835089	-3.046523	0.250484953162
99.824513	-3.031891	0.23105574537
99.813938	-3.017259	0.221850232018
99.803363	-3.002626	0.229525608856
99.792788	-2.987994	0.260049505754
99.782213	-2.973361	0.308164220922
99.771639	-2.958728	0.301095529406
99.761065	-2.944095	0.177028269755
99.750492	-2.929462	0.0315259201615
99.739919	-2.914829	-0.0995287750497
99.729345	-2.900196	-0.222139275782
99.718773	-2.885563	-0.345846884894
99.7082	-2.870929	-0.463895784337
99.697628	-2.856296	-0.486441546755
99.687056	-2.841662	-0.399482694215
99.676485	-2.827029	-0.301352680462
99.665913	-2.812395	-0.220868000981
99.655342	-2.797761	-0.156280138393
99.644771	-2.783127	-0.102553401548
99.634201	-2.768493	-0.056613832912
99.623631	-2.753858	-0.0236677616715
99.613061	-2.739224	-0.0154552118584
99.602491	-2.724589	-0.0215088189268
99.591922	-2.709955	-0.0314232636278
99.581352	-2.69532	-0.0438597298028
99.570784	-2.680685	-0.0593496659393
99.560215	-2.66605	-0.0762579162262
99.549646	-2.651415	-0.0805589486846
100.378712	-3.767422	0.0647405082676
100.36812	-3.752797	0.106410902055
100.357528	-3.738171	0.140362650272
100.346936	-3.723546	0.156330698421
100.336345	-3.70892	0.152556157375
100.325754	-3.694293	0.134898722819
100.315164	-3.679667	0.119381167045
100.304574	-3.665041	0.112747732885
100.293984	-3.650414	0.102920764453
100.283395	-3.635788	0.082011264897
100.272806	-3.621161	0.0504239248564
100.262217	-3.606534	0.0121310064123
100.251629	-3.591907	-0.0251666241699
100.241041	-3.57728	-0.0432722616349
100.230453	-3.562652	-0.0237795145235
100.219866	-3.548025	0.025625986639
100.209279	-3.533397	0.0856919967806
100.198692	-3.51877	0.146027074548
100.188106	-3.504142	0.201753714279
100.17752	-3.489514	0.24568295756
100.166935	-3.474886	0.262479989468
100.156349	-3.460257	0.240884426596
100.145765	-3.445629	0.189004592176
100.13518	-3.431	0.119259810672
100.124596	-3.416372	0.0371836710925
100.114012	-3.401743	-0.0551315522
100.103428	-3.387114	-0.15312792662
100.092845	-3.372485	-0.239063814845
100.082262	-3.357856	-0.289994937552
100.07168	-3.343226	-0.316269424385
100.061097	-3.328597	-0.33918897229
100.050516	-3.313967	-0.366631242211
100.039934	-3.299338	-0.397642414556
100.029353	-3.284708	-0.42587448312
100.018772	-3.270078	-0.435344186204
100.008191	-3.255448	-0.409101343581
99.997611	-3.240818	-0.350857681205
99.987031	-3.226187	-0.276904094007
99.976451	-3.211557	-0.196309607881
99.965872	-3.196926	-0.111062827245
99.955293	-3.182296	-0.0227698996925
99.944714	-3.167665	0.0584824895081
99.934135	-3.153034	0.11203722227
99.923557	-3.138403	0.138328000635
99.912979	-3.123772	0.155897017341
99.902402	-3.10914	0.174488674136
99.891825	-3.094509	0.194420193343
99.881248	-3.079877	0.213109255284
99.870671	-3.065246	0.22658850614
99.860095	-3.050614	0.23077124386
99.849519	-3.035982	0.226734613395
99.838943	-3.02135	0.220675161133
99.828368	-3.006718	0.219026719284
99.817793	-2.992086	0.225934713026
99.807218	-2.977453	0.241347596547
99.796643	-2.962821	0.251929760955
99.786069	-2.948188	0.22409078929
99.775495	-2.933555	0.143435505813
99.764921	-2.918923	0.0367964448773
99.754348	-2.90429	-0.0718035636236
99.743775	-2.889657	-0.175803708457
99.733202	-2.875024	-0.272485370338
99.722629	-2.86039	-0.34573914312
99.712057	-2.845757	-0.363286771557
99.701485	-2.831123	-0.324476545203
99.690914	-2.81649	-0.262351901207
99.680342	-2.801856	-0.201252460758
99.669771	-2.787222	-0.148046632162
99.6592	-2.772588	-0.102953234865
99.648629	-2.757954	-0.0660468448942
99.638059	-2.74332	-0.0403259333053
99.627489	-2.728686	-0.0284298484066
99.616919	-2.714052	-0.0270845531307
99.60635	-2.699417	-0.0314888870907
99.59578	-2.684783	-0.0391137323718
99.585211	-2.670148	-0.048327339877
99.574643	-2.655513	-0.0554980189088
99.564074	-2.640878	-0.0534978174057
