99.407961	-3.157183	6.57843605739	99.407961	-3.157183	0.446612384793
99.397391	-3.142547	6.28202604273	99.397391	-3.142547	0.133402731481
99.38682	-3.12791	5.9861483708	99.38682	-3.12791	-0.285167357886
99.37625	-3.113273	5.69000207674	99.37625	-3.113273	-0.808599842534
99.36568	-3.098637	5.45139554626	99.36568	-3.098637	-1.110199154
99.355111	-3.084	5.34841924354	99.355111	-3.084	-0.750055446335
99.344542	-3.069363	5.25630628821	99.344542	-3.069363	-0.41815775461
99.333973	-3.054725	5.169090465	99.333973	-3.054725	-0.150490663841
99.323404	-3.040088	5.09760946533	99.323404	-3.040088	0.0989261242765
99.312835	-3.025451	5.05621537986	99.312835	-3.025451	0.382952848741
99.302267	-3.010813	5.05370746528	99.302267	-3.010813	0.740841773746
99.291699	-2.996176	5.04016161164	99.291699	-2.996176	1.11486781447
99.281132	-2.981538	4.63127534839	99.281132	-2.981538	0.915642799858
99.270564	-2.9669	4.04399831441	99.270564	-2.9669	0.504013105092
99.259997	-2.952262	3.4630017767	99.259997	-2.952262	0.193471631038
99.24943	-2.937624	2.87107983053	99.24943	-2.937624	-0.0148528196502
99.238864	-2.922986	2.23068034675	99.238864	-2.922986	-0.144926757397
99.228298	-2.908348	1.5195964624	99.228298	-2.908348	-0.217590884049
99.217732	-2.89371	0.94164947943	99.217732	-2.89371	-0.265807891277
100.046626	-4.009993	2.69926964367	100.046626	-4.009993	1.3413234458
100.036036	-3.995364	2.87812018369	100.036036	-3.995364	0.979316535794
100.025447	-3.980734	3.08881354764	100.025447	-3.980734	0.674573436278
100.014857	-3.966105	3.33589382858	100.014857	-3.966105	0.459401586458
100.004268	-3.951475	3.63203881078	100.004268	-3.951475	0.322299068505
99.99368	-3.936845	3.95592095109	99.99368	-3.936845	0.249529392214
99.983092	-3.922215	4.10279640968	99.983092	-3.922215	0.230212233724
99.972504	-3.907585	3.90557671124	99.972504	-3.907585	0.25834504684
99.961917	-3.892955	3.61422041981	99.961917	-3.892955	0.335099056442
99.951329	-3.878324	3.38300131122	99.951329	-3.878324	0.464814689952
99.940743	-3.863694	3.23355520888	99.940743	-3.863694	0.655992341555
99.930156	-3.849063	3.16171765562	99.930156	-3.849063	0.918053952011
99.91957	-3.834432	3.15605459219	99.91957	-3.834432	1.23922258419
99.908985	-3.819802	3.16581612653	99.908985	-3.819802	1.47427024841
99.898399	-3.805171	3.08066606605	99.898399	-3.805171	1.28217079275
99.887814	-3.790539	2.91928217973	99.887814	-3.790539	0.742902726928
99.87723	-3.775908	2.76797836547	99.87723	-3.775908	0.159004317701
99.866645	-3.761277	2.64550182695	99.866645	-3.761277	-0.385530888434
99.856061	-3.746645	2.54224059221	99.856061	-3.746645	-0.899318814949
99.845478	-3.732013	2.45162998134	99.845478	-3.732013	-1.38647034579
99.834894	-3.717382	2.39903921545	99.834894	-3.717382	-1.76677717173
99.824311	-3.70275	2.43174098057	99.824311	-3.70275	-1.90218442129
99.813729	-3.688118	2.50850511226	99.813729	-3.688118	-1.89134519641
99.803147	-3.673485	2.57609359006	99.803147	-3.673485	-1.86352042755
99.792565	-3.658853	2.61615890311	99.792565	-3.658853	-1.85006365224
99.781983	-3.644221	2.62176514503	99.781983	-3.644221	-1.84689376721
99.771402	-3.629588	2.59268037891	99.771402	-3.629588	-1.8455264371
99.760821	-3.614955	2.5732947241	99.760821	-3.614955	-1.84472751731
99.75024	-3.600323	2.70654972994	99.75024	-3.600323	-1.85959629328
99.73966	-3.58569	3.01014856385	99.73966	-3.58569	-1.88672538681
99.72908	-3.571057	3.31797887177	99.72908	-3.571057	-1.89405614295
99.7185	-3.556424	3.5219050458	99.7185	-3.556424	-1.8569738175
99.707921	-3.54179	3.58196822251	99.707921	-3.54179	-1.76128874164
99.697342	-3.527157	3.50268628836	99.697342	-3.527157	-1.60621577424
99.686763	-3.512523	3.44284320355	99.686763	-3.512523	-1.44674908904
99.676185	-3.49789	3.77097080147	99.676185	-3.49789	-1.41461697662
99.665607	-3.483256	4.42333698202	99.665607	-3.483256	-1.49170967507
99.655029	-3.468622	5.0094028879	99.655029	-3.468622	-1.54717715819
99.644452	-3.453988	5.34691549391	99.644452	-3.453988	-1.52563261537
99.633875	-3.439354	5.38363397255	99.633875	-3.439354	-1.41912449642
99.623298	-3.42472	5.11456136171	99.623298	-3.42472	-1.23402732943
99.612722	-3.410086	4.68462745569	99.612722	-3.410086	-1.01259252512
99.602146	-3.395451	4.75298682999	99.602146	-3.395451	-0.922485579924
99.59157	-3.380817	5.4698674167	99.59157	-3.380817	-1.00049877888
99.580994	-3.366182	6.19024222178	99.580994	-3.366182	-1.08086650407
99.570419	-3.351547	6.63394370936	99.570419	-3.351547	-1.08530328482
99.559844	-3.336912	6.78823371899	99.559844	-3.336912	-1.00084098323
99.54927	-3.322277	6.69500907195	99.54927	-3.322277	-0.829513778904
99.538695	-3.307642	6.48159347776	99.538695	-3.307642	-0.604643589252
99.528121	-3.293007	6.43533915219	99.528121	-3.293007	-0.417904795236
99.517548	-3.278372	6.66845728714	99.517548	-3.278372	-0.305558727752
99.506974	-3.263736	6.95810380834	99.506974	-3.263736	-0.193844773793
99.496401	-3.249101	7.15600745888	99.496401	-3.249101	-0.0376626045589
99.485828	-3.234465	7.24698942258	99.485828	-3.234465	0.160000918904
99.475256	-3.219829	7.2561573541	99.475256	-3.219829	0.378481660654
99.464684	-3.205193	7.20454695267	99.464684	-3.205193	0.583853788426
99.454112	-3.190557	7.07927949221	99.454112	-3.190557	0.695326440066
99.44354	-3.175921	6.86803792657	99.44354	-3.175921	0.649554149767
99.432969	-3.161285	6.61376373987	99.432969	-3.161285	0.495858693581
99.422398	-3.146649	6.3497886787	99.422398	-3.146649	0.27587870399
99.411827	-3.132012	6.08351406895	99.411827	-3.132012	-0.00837263267449
99.401256	-3.117376	5.81528892549	99.401256	-3.117376	-0.35560417582
99.390686	-3.102739	5.55354749807	99.390686	-3.102739	-0.708398546583
99.380116	-3.088102	5.3356079254	99.380116	-3.088102	-0.84968626303
99.369546	-3.073466	5.17501188945	99.369546	-3.073466	-0.698606712649
99.358977	-3.058829	5.03849408685	99.358977	-3.058829	-0.444330864643
99.348408	-3.044192	4.90919617786	99.348408	-3.044192	-0.194890990038
99.337839	-3.029555	4.79063281348	99.337839	-3.029555	0.0495915507301
99.327271	-3.014917	4.68934430532	99.327271	-3.014917	0.311585220475
99.316702	-3.00028	4.59563740751	99.316702	-3.00028	0.589626715038
99.306134	-2.985643	4.43520138176	99.306134	-2.985643	0.779268892703
99.295567	-2.971005	4.09626961576	99.295567	-2.971005	0.717448386738
99.284999	-2.956367	3.62800926108	99.284999	-2.956367	0.49618127402
99.274432	-2.94173	3.1226862237	99.274432	-2.94173	0.277773013285
99.263865	-2.927092	2.6035394648	99.263865	-2.927092	0.115309430773
99.253298	-2.912454	2.06875123473	99.253298	-2.912454	0.00583305974893
99.242732	-2.897816	1.55515195128	99.242732	-2.897816	-0.0668863103847
99.232166	-2.883178	1.25310715681	99.232166	-2.883178	-0.130841399083
100.061068	-3.999449	2.51879982558	100.061068	-3.999449	1.15707759085
100.050478	-3.98482	2.6657699523	100.050478	-3.98482	0.937562666228
100.039889	-3.970191	2.85257344467	100.039889	-3.970191	0.710320545915
100.029299	-3.955561	3.0679461722	100.029299	-3.955561	0.524560350135
100.01871	-3.940932	3.29963784053	100.01871	-3.940932	0.39048205232
100.008122	-3.926302	3.50442041182	100.008122	-3.926302	0.306151237336
99.997533	-3.911672	3.59048716872	99.997533	-3.911672	0.267178412445
99.986945	-3.897042	3.51836854351	99.986945	-3.897042	0.270520465877
99.976358	-3.882412	3.36342731122	99.976358	-3.882412	0.31518020685
99.965771	-3.867782	3.20993147839	99.965771	-3.867782	0.401100593407
99.955184	-3.853151	3.0951951076	99.955184	-3.853151	0.528211975324
99.944597	-3.838521	3.02629524346	99.944597	-3.838521	0.689606209501
99.934011	-3.82389	2.9931946844	99.934011	-3.82389	0.849665006016
99.923425	-3.80926	2.96434355377	99.923425	-3.80926	0.908511207
99.91284	-3.794629	2.90419436082	99.91284	-3.794629	0.758564670686
99.902255	-3.779998	2.81484258744	99.902255	-3.779998	0.420915686596
99.89167	-3.765366	2.72357849321	99.89167	-3.765366	0.00399820524295
99.881086	-3.750735	2.64591584746	99.881086	-3.750735	-0.420890348396
99.870502	-3.736104	2.58383174787	99.870502	-3.736104	-0.828919858048
99.859918	-3.721472	2.54007069813	99.859918	-3.721472	-1.19908835283
99.849334	-3.706841	2.52806811696	99.849334	-3.706841	-1.48466187204
99.838751	-3.692209	2.55861021975	99.838751	-3.692209	-1.64788980635
99.828169	-3.677577	2.61781350606	99.828169	-3.677577	-1.71882992633
99.817586	-3.662945	2.6827611994	99.817586	-3.662945	-1.75201804776
99.807004	-3.648313	2.73904660079	99.807004	-3.648313	-1.77780625775
99.796423	-3.633681	2.78272058409	99.796423	-3.633681	-1.80234894974
99.785841	-3.619048	2.82172233972	99.785841	-3.619048	-1.82342627605
99.77526	-3.604416	2.89023170957	99.77526	-3.604416	-1.84020363589
99.764679	-3.589783	3.03552164236	99.764679	-3.589783	-1.85454751044
99.754099	-3.57515	3.25646071784	99.754099	-3.57515	-1.8625636427
99.743519	-3.560517	3.49125366526	99.743519	-3.560517	-1.85199848239
99.732939	-3.545884	3.68037632359	99.732939	-3.545884	-1.81125988032
99.72236	-3.531251	3.79758121585	99.72236	-3.531251	-1.73519903458
99.711781	-3.516618	3.86600182886	99.711781	-3.516618	-1.63330732728
99.701202	-3.501985	3.98200857769	99.701202	-3.501985	-1.54072806056
99.690624	-3.487351	4.25639472138	99.690624	-3.487351	-1.49886641242
99.680046	-3.472718	4.65715197856	99.680046	-3.472718	-1.50016377293
99.669468	-3.458084	5.0374060667	99.669468	-3.458084	-1.49774538522
99.65889	-3.44345	5.28217502004	99.65889	-3.44345	-1.4566508647
99.648313	-3.428816	5.34554193555	99.648313	-3.428816	-1.36568164579
99.637736	-3.414182	5.25104522472	99.637736	-3.414182	-1.23372851755
99.62716	-3.399548	5.14298657367	99.62716	-3.399548	-1.09952829747
99.616583	-3.384914	5.26232728726	99.616583	-3.384914	-1.0245076042
99.606007	-3.370279	5.64247220181	99.606007	-3.370279	-1.01623970456
99.595432	-3.355645	6.08112341656	99.595432	-3.355645	-1.02136027536
99.584857	-3.34101	6.40446585361	99.584857	-3.34101	-0.991653675787
99.574281	-3.326375	6.56190739802	99.574281	-3.326375	-0.909099563571
99.563707	-3.31174	6.5764876123	99.563707	-3.31174	-0.775683340756
99.553132	-3.297106	6.53313949654	99.553132	-3.297106	-0.614266358829
99.542558	-3.28247	6.54459100964	99.542558	-3.28247	-0.459407240921
99.531984	-3.267835	6.65069743043	99.531984	-3.267835	-0.323658974802
99.521411	-3.2532	6.7881845501	99.521411	-3.2532	-0.18771732187
99.510838	-3.238565	6.88932592993	99.510838	-3.238565	-0.0339544398058
99.500265	-3.223929	6.92937895272	99.500265	-3.223929	0.136691098093
99.489692	-3.209293	6.91201976643	99.489692	-3.209293	0.306849959472
99.47912	-3.194658	6.84335462823	99.47912	-3.194658	0.445141954334
99.468548	-3.180022	6.72146260739	99.468548	-3.180022	0.508594450359
99.457976	-3.165386	6.54911664648	99.457976	-3.165386	0.473306590809
99.447405	-3.15075	6.34287619381	99.447405	-3.15075	0.351554942668
99.436833	-3.136114	6.12028143898	99.436833	-3.136114	0.167136781241
99.426263	-3.121477	5.8897842023	99.426263	-3.121477	-0.0628515075528
99.415692	-3.106841	5.65513273261	99.415692	-3.106841	-0.314839728384
99.405122	-3.092205	5.42333546836	99.405122	-3.092205	-0.530077213648
99.394552	-3.077568	5.20669933697	99.394552	-3.077568	-0.620801037381
99.383982	-3.062931	5.00876035964	99.383982	-3.062931	-0.559883395132
99.373412	-3.048295	4.82070776866	99.373412	-3.048295	-0.4063854683
99.362843	-3.033658	4.63629119772	99.362843	-3.033658	-0.220562498796
99.352274	-3.019021	4.45616096639	99.352274	-3.019021	-0.0247648598857
99.341705	-3.004384	4.2808104293	99.341705	-3.004384	0.175357118344
99.331137	-2.989746	4.09733753526	99.331137	-2.989746	0.35991563824
99.320569	-2.975109	3.86968706844	99.320569	-2.975109	0.474804669966
99.310001	-2.960472	3.56426436442	99.310001	-2.960472	0.473779364441
99.299434	-2.945834	3.19277872534	99.299434	-2.945834	0.385624606871
99.288866	-2.931197	2.78922946504	99.288866	-2.931197	0.273828066541
99.278299	-2.916559	2.37725499955	99.278299	-2.916559	0.177722330255
99.267732	-2.901921	1.97856501981	99.267732	-2.901921	0.105249824527
99.257166	-2.887283	1.64246856366	99.257166	-2.887283	0.0481092393776
99.2466	-2.872645	1.4590536668	99.2466	-2.872645	-0.00875501254483
100.07551	-3.988905	2.30128645037	100.07551	-3.988905	0.986212196387
100.06492	-3.974276	2.42844111025	100.06492	-3.974276	0.845252251061
100.05433	-3.959647	2.58998844706	100.05433	-3.959647	0.681918103498
100.043741	-3.945017	2.76808828306	100.043741	-3.945017	0.530085631179
100.033152	-3.930388	2.9427385491	100.033152	-3.930388	0.405759450836
100.022563	-3.915758	3.08296995449	100.022563	-3.915758	0.315025896215
100.011975	-3.901129	3.15161806989	100.011975	-3.901129	0.259384865335
100.001387	-3.886499	3.13797569128	100.001387	-3.886499	0.238030601826
99.990799	-3.871869	3.06794063907	99.990799	-3.871869	0.2484745834
99.980212	-3.857239	2.97986623214	99.980212	-3.857239	0.286383605932
99.969625	-3.842609	2.89938810104	99.969625	-3.842609	0.34518865419
99.959038	-3.827978	2.83740478129	99.959038	-3.827978	0.412204433057
99.948452	-3.813348	2.79340271636	99.948452	-3.813348	0.459267378424
99.937866	-3.798717	2.75909187594	99.937866	-3.798717	0.440953941324
99.92728	-3.784087	2.72465326171	99.92728	-3.784087	0.319545336046
99.916695	-3.769456	2.68847457253	99.916695	-3.769456	0.100333930956
99.90611	-3.754825	2.65517957997	99.90611	-3.754825	-0.179387438798
99.895526	-3.740194	2.62954049802	99.895526	-3.740194	-0.481599790472
99.884942	-3.725562	2.61435273099	99.884942	-3.725562	-0.780820583052
99.874358	-3.710931	2.61346093621	99.874358	-3.710931	-1.05464452792
99.863774	-3.6963	2.63243599731	99.863774	-3.6963	-1.27966905476
99.853191	-3.681668	2.67438299718	99.853191	-3.681668	-1.44249009185
99.842608	-3.667036	2.73520593964	99.842608	-3.667036	-1.5531006115
99.832026	-3.652404	2.80750969447	99.832026	-3.652404	-1.63348443422
99.821444	-3.637772	2.88578167019	99.821444	-3.637772	-1.6999658142
99.810862	-3.62314	2.96906785928	99.810862	-3.62314	-1.75807253615
99.80028	-3.608508	3.06255432792	99.80028	-3.608508	-1.80603691781
99.789699	-3.593876	3.18027587285	99.789699	-3.593876	-1.84011630008
99.779118	-3.579243	3.33622526306	99.779118	-3.579243	-1.85765664774
99.768538	-3.564611	3.52855068815	99.768538	-3.564611	-1.85775759285
99.757958	-3.549978	3.73608197834	99.757958	-3.549978	-1.83957929272
99.747378	-3.535345	3.93532352949	99.747378	-3.535345	-1.80265905472
99.736798	-3.520712	4.11458885154	99.736798	-3.520712	-1.74826062418
99.726219	-3.506079	4.28561036331	99.726219	-3.506079	-1.68365197435
99.71564	-3.491446	4.48058636747	99.71564	-3.491446	-1.62255413587
99.705062	-3.476812	4.72502791743	99.705062	-3.476812	-1.57653140669
99.694484	-3.462179	4.99949244801	99.694484	-3.462179	-1.54176342402
99.683906	-3.447545	5.25328424438	99.683906	-3.447545	-1.50356360837
99.673328	-3.432912	5.43898646372	99.673328	-3.432912	-1.4482681865
99.662751	-3.418278	5.53804686862	99.662751	-3.418278	-1.3710577065
99.652174	-3.403644	5.57042844739	99.652174	-3.403644	-1.27734883315
99.641597	-3.38901	5.60528752353	99.641597	-3.38901	-1.18443370372
99.631021	-3.374376	5.72195535085	99.631021	-3.374376	-1.11159946341
99.620445	-3.359742	5.93461621561	99.620445	-3.359742	-1.06173272944
99.609869	-3.345107	6.18013613193	99.609869	-3.345107	-1.01806578734
99.599294	-3.330473	6.38730661113	99.599294	-3.330473	-0.960965243723
99.588718	-3.315838	6.52206410828	99.588718	-3.315838	-0.879290244817
99.578144	-3.301204	6.58860863474	99.578144	-3.301204	-0.771925631536
99.567569	-3.286569	6.61689819987	99.567569	-3.286569	-0.645717060966
99.556995	-3.271934	6.64107671625	99.556995	-3.271934	-0.510048241326
99.546421	-3.257299	6.67369153012	99.546421	-3.257299	-0.368771420662
99.535847	-3.242664	6.70134251394	99.535847	-3.242664	-0.219459374634
99.525274	-3.228028	6.70594721972	99.525274	-3.228028	-0.0613375545537
99.514701	-3.213393	6.67877646483	99.514701	-3.213393	0.0987118337204
99.504128	-3.198758	6.6189846785	99.504128	-3.198758	0.244414414848
99.493556	-3.184122	6.52756157966	99.493556	-3.184122	0.351274440035
99.482984	-3.169486	6.40481950962	99.482984	-3.169486	0.393590712833
99.472412	-3.15485	6.25386696494	99.472412	-3.15485	0.35943414222
99.46184	-3.140215	6.08157798564	99.46184	-3.140215	0.256563355858
99.451269	-3.125579	5.89554916755	99.451269	-3.125579	0.103721624823
99.440698	-3.110942	5.70040113733	99.440698	-3.110942	-0.0776748371438
99.430127	-3.096306	5.49749569584	99.430127	-3.096306	-0.260686334212
99.419557	-3.08167	5.28665349733	99.419557	-3.08167	-0.406203944678
99.408987	-3.067033	5.06724191488	99.408987	-3.067033	-0.474893980538
99.398417	-3.052397	4.83860264417	99.398417	-3.052397	-0.454492558025
99.387847	-3.03776	4.60051375302	99.387847	-3.03776	-0.367172646174
99.377278	-3.023124	4.3558982644	99.377278	-3.023124	-0.244107091459
99.366709	-3.008487	4.10858208248	99.366709	-3.008487	-0.107445047726
99.35614	-2.99385	3.86094444635	99.35614	-2.99385	0.0289900269584
99.345572	-2.979213	3.61066235856	99.345572	-2.979213	0.149508076175
99.335003	-2.964576	3.34999805797	99.335003	-2.964576	0.233196750861
99.324435	-2.949938	3.07145610383	99.324435	-2.949938	0.267231811726
99.313868	-2.935301	2.7743388075	99.313868	-2.935301	0.259641089774
99.3033	-2.920664	2.46630754649	99.3033	-2.920664	0.232369336401
99.292733	-2.906026	2.15990277247	99.292733	-2.906026	0.203055772393
99.282166	-2.891388	1.87740508758	99.282166	-2.891388	0.177406586948
99.2716	-2.876751	1.65559724963	99.2716	-2.876751	0.15017298029
99.261033	-2.862113	1.53802876869	99.261033	-2.862113	0.11153916274
100.089952	-3.97836	2.04204648971	100.089952	-3.97836	0.854539621099
100.079362	-3.963731	2.16490663256	100.079362	-3.963731	0.753484471121
100.068772	-3.949102	2.31342507364	100.068772	-3.949102	0.629372095885
100.058182	-3.934473	2.46530150713	100.058182	-3.934473	0.501539306886
100.047593	-3.919844	2.60286611063	100.047593	-3.919844	0.384079735056
100.037004	-3.905215	2.71002546411	100.037004	-3.905215	0.286433423414
100.026415	-3.890585	2.77386097826	100.026415	-3.890585	0.214791179458
100.015827	-3.875955	2.79213113197	100.015827	-3.875955	0.17058572282
100.00524	-3.861326	2.77320690251	100.00524	-3.861326	0.149432219276
99.994652	-3.846696	2.73079294008	99.994652	-3.846696	0.142654014982
99.984065	-3.832066	2.67679747242	99.984065	-3.832066	0.139758713558
99.973478	-3.817436	2.6210376818	99.973478	-3.817436	0.129791727861
99.962892	-3.802805	2.57296845729	99.962892	-3.802805	0.100893988883
99.952306	-3.788175	2.54347500174	99.952306	-3.788175	0.0430366654613
99.94172	-3.773544	2.53810539317	99.94172	-3.773544	-0.0519870189821
99.931135	-3.758914	2.55212014865	99.931135	-3.758914	-0.186689464738
99.92055	-3.744283	2.57488814029	99.92055	-3.744283	-0.357946618519
99.909965	-3.729652	2.60139405819	99.909965	-3.729652	-0.55321185465
99.899381	-3.715021	2.63229201324	99.899381	-3.715021	-0.756534245119
99.888797	-3.700389	2.67045487079	99.888797	-3.700389	-0.952174761851
99.878214	-3.685758	2.71796749315	99.878214	-3.685758	-1.12812895348
99.86763	-3.671127	2.77591232587	99.86763	-3.671127	-1.27946190307
99.857047	-3.656495	2.84618275944	99.857047	-3.656495	-1.40837056432
99.846465	-3.641863	2.93164044515	99.846465	-3.641863	-1.52159760831
99.835883	-3.627232	3.03465303001	99.835883	-3.627232	-1.62485111362
99.825301	-3.6126	3.15577766165	99.825301	-3.6126	-1.71917909201
99.814719	-3.597968	3.29363237072	99.814719	-3.597968	-1.79853210122
99.804138	-3.583335	3.44583292911	99.804138	-3.583335	-1.85220399048
99.793557	-3.568703	3.61207347997	99.793557	-3.568703	-1.87334251586
99.782976	-3.554071	3.79584787988	99.782976	-3.554071	-1.86622459944
99.772396	-3.539438	3.99978014693	99.772396	-3.539438	-1.84190777452
99.761816	-3.524805	4.22263005821	99.761816	-3.524805	-1.80954959997
99.751237	-3.510173	4.46091772995	99.751237	-3.510173	-1.77388263888
99.740657	-3.49554	4.71018602888	99.740657	-3.49554	-1.73671845373
99.730078	-3.480907	4.95894728175	99.730078	-3.480907	-1.69665142708
99.7195	-3.466273	5.18956622666	99.7195	-3.466273	-1.64998642048
99.708921	-3.45164	5.38927288404	99.708921	-3.45164	-1.59455914033
99.698343	-3.437007	5.56055084914	99.698343	-3.437007	-1.53300813897
99.687766	-3.422373	5.708698942	99.687766	-3.422373	-1.46850684442
99.677188	-3.40774	5.83721687307	99.677188	-3.40774	-1.40267173084
99.666611	-3.393106	5.9488081873	99.666611	-3.393106	-1.33509019553
99.656034	-3.378472	6.04988908834	99.656034	-3.378472	-1.26467041256
99.645458	-3.363838	6.14684411831	99.645458	-3.363838	-1.19018199237
99.634882	-3.349204	6.24890811881	99.634882	-3.349204	-1.11356718306
99.624306	-3.33457	6.35901914832	99.624306	-3.33457	-1.03724987281
99.61373	-3.319935	6.47209930855	99.61373	-3.319935	-0.961106124187
99.603155	-3.305301	6.57753837026	99.603155	-3.305301	-0.881657273377
99.59258	-3.290666	6.66806526301	99.59258	-3.290666	-0.7950290731
99.582006	-3.276032	6.7325351212	99.582006	-3.276032	-0.695404085093
99.571431	-3.261397	6.75470263034	99.571431	-3.261397	-0.575606839005
99.560857	-3.246762	6.72468316111	99.560857	-3.246762	-0.431893554222
99.550284	-3.232127	6.65588444689	99.550284	-3.232127	-0.270316800169
99.53971	-3.217492	6.56772441437	99.53971	-3.217492	-0.101641085545
99.529137	-3.202857	6.46983189484	99.529137	-3.202857	0.062509036547
99.518564	-3.188221	6.36268530229	99.518564	-3.188221	0.206647821928
99.507992	-3.173586	6.24532014386	99.507992	-3.173586	0.308008027138
99.497419	-3.15895	6.11724573424	99.497419	-3.15895	0.343020610349
99.486847	-3.144315	5.97910670256	99.486847	-3.144315	0.304038083034
99.476276	-3.129679	5.83188776654	99.476276	-3.129679	0.205098666289
99.465704	-3.115043	5.67719883225	99.465704	-3.115043	0.0691457341909
99.455133	-3.100407	5.51605454925	99.455133	-3.100407	-0.0820536309199
99.444562	-3.085771	5.34548111577	99.444562	-3.085771	-0.226561886687
99.433992	-3.071135	5.15600949699	99.433992	-3.071135	-0.339210930102
99.423422	-3.056499	4.93421192079	99.423422	-3.056499	-0.398526422549
99.412852	-3.041862	4.67416819921	99.412852	-3.041862	-0.39767680351
99.402282	-3.027226	4.38313104765	99.402282	-3.027226	-0.348923881296
99.391712	-3.012589	4.07431617208	99.391712	-3.012589	-0.273209602141
99.381143	-2.997952	3.75711465087	99.381143	-2.997952	-0.188986396078
99.370574	-2.983316	3.43812451493	99.370574	-2.983316	-0.108107072992
99.360006	-2.968679	3.12867056476	99.360006	-2.968679	-0.0353570164693
99.349437	-2.954042	2.84533867535	99.349437	-2.954042	0.0299364632655
99.338869	-2.939405	2.59707043096	99.338869	-2.939405	0.0896507232763
99.328302	-2.924768	2.37104715217	99.328302	-2.924768	0.140585709359
99.317734	-2.91013	2.15112185218	99.317734	-2.91013	0.181270783779
99.307167	-2.895493	1.93597332673	99.307167	-2.895493	0.214144312771
99.2966	-2.880855	1.74146885895	99.2966	-2.880855	0.240401449835
99.286033	-2.866218	1.59390294283	99.286033	-2.866218	0.253421281586
99.275467	-2.85158	1.52087741784	99.275467	-2.85158	0.240189541601
100.104393	-3.967815	1.74559511795	100.104393	-3.967815	0.755529121321
100.093803	-3.953187	1.88684075922	100.093803	-3.953187	0.676404260284
100.083213	-3.938558	2.03907472449	100.083213	-3.938558	0.57420611593
100.072623	-3.923929	2.17732312998	100.072623	-3.923929	0.458617526118
100.062034	-3.9093	2.29090646062	100.062034	-3.9093	0.340353431282
100.051445	-3.894671	2.37650470511	100.051445	-3.894671	0.230619146593
100.040856	-3.880041	2.43756892665	100.040856	-3.880041	0.141542024201
100.030268	-3.865412	2.47850636256	100.030268	-3.865412	0.078541166663
100.01968	-3.850782	2.49703365598	100.01968	-3.850782	0.0332262967477
100.009092	-3.836152	2.48853766323	100.009092	-3.836152	-0.0100910362232
99.998505	-3.821522	2.45314004202	99.998505	-3.821522	-0.0652193441356
99.987918	-3.806892	2.39645930604	99.987918	-3.806892	-0.141013133418
99.977332	-3.792262	2.33556244243	99.977332	-3.792262	-0.234915015263
99.966746	-3.777632	2.30614332442	99.966746	-3.777632	-0.323690641532
99.95616	-3.763002	2.33688559693	99.95616	-3.763002	-0.386752503883
99.945575	-3.748371	2.41046564809	99.945575	-3.748371	-0.441964836491
99.93499	-3.73374	2.49168635127	99.93499	-3.73374	-0.519175501497
99.924405	-3.71911	2.56807105379	99.924405	-3.71911	-0.623277755454
99.91382	-3.704479	2.6418599036	99.91382	-3.704479	-0.744494690767
99.903236	-3.689848	2.71691085308	99.903236	-3.689848	-0.872492816931
99.892653	-3.675217	2.79204313918	99.892653	-3.675217	-1.00354019689
99.882069	-3.660585	2.86475304019	99.882069	-3.660585	-1.13943229344
99.871486	-3.645954	2.94257749386	99.871486	-3.645954	-1.27831129859
99.860904	-3.631322	3.04005249204	99.860904	-3.631322	-1.41649085857
99.850321	-3.616691	3.16779712081	99.850321	-3.616691	-1.55346655111
99.839739	-3.602059	3.32803088364	99.839739	-3.602059	-1.68789638934
99.829158	-3.587427	3.51193234253	99.829158	-3.587427	-1.80790761658
99.818576	-3.572795	3.69727442623	99.818576	-3.572795	-1.88710446013
99.807995	-3.558163	3.86886983599	99.807995	-3.558163	-1.9068624868
99.797415	-3.54353	4.04155100068	99.797415	-3.54353	-1.88196515809
99.786834	-3.528898	4.24494183184	99.786834	-3.528898	-1.84477379821
99.776254	-3.514265	4.49518596323	99.776254	-3.514265	-1.81412764699
99.765674	-3.499633	4.79523765646	99.765674	-3.499633	-1.7960844923
99.755095	-3.485	5.13022943587	99.755095	-3.485	-1.78748629189
99.744516	-3.470367	5.44943968854	99.744516	-3.470367	-1.77268510278
99.733937	-3.455734	5.67791628812	99.733937	-3.455734	-1.72799926253
99.723359	-3.441101	5.80232393534	99.723359	-3.441101	-1.6504809645
99.712781	-3.426468	5.89198148618	99.712781	-3.426468	-1.56470026451
99.702203	-3.411834	6.00675056789	99.702203	-3.411834	-1.49173547482
99.691625	-3.397201	6.16394711326	99.691625	-3.397201	-1.43778452202
99.681048	-3.382567	6.34860172795	99.681048	-3.382567	-1.39706605396
99.670471	-3.367934	6.5066852747	99.670471	-3.367934	-1.34939765709
99.659895	-3.3533	6.57234986758	99.659895	-3.3533	-1.27040296272
99.649318	-3.338666	6.5597478371	99.649318	-3.338666	-1.16418071586
99.638742	-3.324032	6.54572260751	99.638742	-3.324032	-1.05746463598
99.628167	-3.309398	6.57651383941	99.628167	-3.309398	-0.966532364301
99.617592	-3.294763	6.65751590346	99.617592	-3.294763	-0.892848375049
99.607016	-3.280129	6.77630511183	99.607016	-3.280129	-0.831017732681
99.596442	-3.265494	6.88917484094	99.596442	-3.265494	-0.764478114792
99.585867	-3.25086	6.91511841214	99.585867	-3.25086	-0.663928782852
99.575293	-3.236225	6.80808445964	99.575293	-3.236225	-0.512667663958
99.564719	-3.22159	6.6277017395	99.564719	-3.22159	-0.331184740694
99.554146	-3.206955	6.44360014807	99.554146	-3.206955	-0.144904100071
99.543573	-3.19232	6.27688700258	99.543573	-3.19232	0.0346914708512
99.533	-3.177685	6.12377913703	99.533	-3.177685	0.196996428624
99.522427	-3.16305	5.97962026589	99.522427	-3.16305	0.316031978532
99.511855	-3.148414	5.84407912892	99.511855	-3.148414	0.352335353823
99.501283	-3.133779	5.71573929509	99.501283	-3.133779	0.296114099203
99.490711	-3.119143	5.58932721119	99.490711	-3.119143	0.182842128452
99.480139	-3.104508	5.46223117609	99.480139	-3.104508	0.0483853554939
99.469568	-3.089872	5.33501915281	99.469568	-3.089872	-0.0891670072688
99.458997	-3.075236	5.20336097793	99.458997	-3.075236	-0.216481431532
99.448426	-3.0606	5.04668860217	99.448426	-3.0606	-0.317125752376
99.437856	-3.045964	4.8284211457	99.437856	-3.045964	-0.373452869265
99.427286	-3.031327	4.52928808197	99.427286	-3.031327	-0.379320036814
99.416716	-3.016691	4.17450811748	99.416716	-3.016691	-0.349018991415
99.406147	-3.002055	3.79709675987	99.406147	-3.002055	-0.304451495403
99.395577	-2.987418	3.40901818462	99.395577	-2.987418	-0.262339652697
99.385008	-2.972781	3.01401130916	99.385008	-2.972781	-0.231837718518
99.37444	-2.958145	2.63329326188	99.37444	-2.958145	-0.207398619872
99.363871	-2.943508	2.3219961808	99.363871	-2.943508	-0.16219145374
99.353303	-2.928871	2.1195693439	99.353303	-2.928871	-0.0748596992782
99.342735	-2.914234	1.97958542982	99.342735	-2.914234	0.0322429652214
99.332168	-2.899597	1.84592272925	99.332168	-2.899597	0.132829245641
99.3216	-2.884959	1.70686431443	99.3216	-2.884959	0.222832802286
99.311033	-2.870322	1.57560213005	99.311033	-2.870322	0.304496721599
99.300466	-2.855685	1.47503953538	99.300466	-2.855685	0.369491833619
99.2899	-2.841047	1.43240625195	99.2899	-2.841047	0.390514081642
100.118834	-3.95727	1.42989177125	100.118834	-3.95727	0.684319456523
100.108243	-3.942642	1.61970827642	100.108243	-3.942642	0.619892139093
100.097653	-3.928013	1.78835176283	100.097653	-3.928013	0.529227983681
100.087063	-3.913384	1.91966788157	100.087063	-3.913384	0.416748849379
100.076474	-3.898755	2.01282143637	100.076474	-3.898755	0.28916540525
100.065885	-3.884126	2.07444043397	100.065885	-3.884126	0.157745658514
100.055296	-3.869497	2.12814462214	100.055296	-3.869497	0.0465197743203
100.044708	-3.854868	2.19354212202	100.044708	-3.854868	-0.0269281897302
100.03412	-3.840238	2.25070366799	100.03412	-3.840238	-0.08343568346
100.023532	-3.825609	2.27359652108	100.023532	-3.825609	-0.152168561251
100.012945	-3.810979	2.25421600237	100.012945	-3.810979	-0.248596999066
100.002358	-3.796349	2.19055164383	100.002358	-3.796349	-0.38306997041
99.991772	-3.781719	2.09505005077	99.991772	-3.781719	-0.551393756673
99.981185	-3.767089	2.04056804138	99.981185	-3.767089	-0.688264779876
99.970599	-3.752459	2.12660467999	99.970599	-3.752459	-0.700055295362
99.960014	-3.737829	2.28062677588	99.960014	-3.737829	-0.660744472099
99.949429	-3.723198	2.418996229	99.949429	-3.723198	-0.653080775163
99.938844	-3.708567	2.53691383066	99.938844	-3.708567	-0.681375254238
99.928259	-3.693937	2.64619955068	99.928259	-3.693937	-0.733281197383
99.917675	-3.679306	2.75627190392	99.917675	-3.679306	-0.799012143362
99.907092	-3.664675	2.8605007534	99.907092	-3.664675	-0.883583568814
99.896508	-3.650044	2.94080408739	99.896508	-3.650044	-1.00438617318
99.885925	-3.635412	3.01411218448	99.885925	-3.635412	-1.15385726677
99.875342	-3.620781	3.11681168698	99.875342	-3.620781	-1.31228350354
99.86476	-3.606149	3.26602077411	99.86476	-3.606149	-1.47828854852
99.854178	-3.591518	3.467684337	99.854178	-3.591518	-1.65582510008
99.843596	-3.576886	3.71183412224	99.843596	-3.576886	-1.83426246871
99.833014	-3.562254	3.94346858008	99.833014	-3.562254	-1.95579749187
99.822433	-3.547622	4.10253773247	99.822433	-3.547622	-1.95683087785
99.811852	-3.53299	4.24158148835	99.811852	-3.53299	-1.88979478282
99.801272	-3.518358	4.43608329283	99.801272	-3.518358	-1.83013696419
99.790692	-3.503725	4.7095635613	99.790692	-3.503725	-1.7978944198
99.780112	-3.489093	5.07164930435	99.780112	-3.489093	-1.7971269916
99.769532	-3.47446	5.51781336106	99.769532	-3.47446	-1.82530873118
99.758953	-3.459828	5.9687110718	99.758953	-3.459828	-1.855703123
99.748374	-3.445195	6.20408099165	99.748374	-3.445195	-1.81528111699
99.737796	-3.430562	6.19384816101	99.737796	-3.430562	-1.69503300809
99.727218	-3.415929	6.1759599737	99.727218	-3.415929	-1.57558977049
99.71664	-3.401295	6.2537425889	99.71664	-3.401295	-1.49256301908
99.706062	-3.386662	6.44302463642	99.706062	-3.386662	-1.45207957978
99.695485	-3.372029	6.72898627124	99.695485	-3.372029	-1.44929618684
99.684908	-3.357395	6.99518856767	99.684908	-3.357395	-1.44357246054
99.674331	-3.342761	7.0118216232	99.674331	-3.342761	-1.35463468557
99.663755	-3.328128	6.82538973985	99.663755	-3.328128	-1.19811878698
99.653179	-3.313494	6.67541393903	99.653179	-3.313494	-1.05671682675
99.642603	-3.29886	6.6298872018	99.642603	-3.29886	-0.953591543594
99.632028	-3.284226	6.69155196301	99.632028	-3.284226	-0.888822414304
99.621452	-3.269591	6.85361014804	99.621452	-3.269591	-0.858767579272
99.610878	-3.254957	7.06861995767	99.610878	-3.254957	-0.845610078036
99.600303	-3.240322	7.13626365368	99.600303	-3.240322	-0.778823971533
99.589729	-3.225688	6.89616377167	99.589729	-3.225688	-0.601666387267
99.579155	-3.211053	6.57321742162	99.579155	-3.211053	-0.389714645425
99.568581	-3.196418	6.2981694518	99.568581	-3.196418	-0.186096806237
99.558008	-3.181783	6.07510201636	99.558008	-3.181783	0.00963922217507
99.547435	-3.167148	5.88487836052	99.547435	-3.167148	0.202344830918
99.536862	-3.152513	5.71528113961	99.536862	-3.152513	0.369559320965
99.52629	-3.137878	5.57254576871	99.52629	-3.137878	0.416594807803
99.515717	-3.123243	5.45701765938	99.515717	-3.123243	0.312273620848
99.505146	-3.108607	5.34866864355	99.505146	-3.108607	0.167782882787
99.494574	-3.093972	5.24357203451	99.494574	-3.093972	0.0275833167436
99.484003	-3.079336	5.14731416028	99.484003	-3.079336	-0.103836994611
99.473432	-3.0647	5.06305778845	99.473432	-3.0647	-0.225523106153
99.462861	-3.050064	4.96689894438	99.462861	-3.050064	-0.328856519054
99.45229	-3.035428	4.76960856069	99.45229	-3.035428	-0.387474156341
99.44172	-3.020792	4.4061970395	99.44172	-3.020792	-0.385247421544
99.43115	-3.006156	3.96947059252	99.43115	-3.006156	-0.355230181834
99.420581	-2.99152	3.52566245892	99.420581	-2.99152	-0.327221346355
99.410011	-2.976883	3.07660583736	99.410011	-2.976883	-0.315584001368
99.399442	-2.962247	2.60879575056	99.399442	-2.962247	-0.330158368746
99.388873	-2.94761	2.12776465033	99.388873	-2.94761	-0.368075544333
99.378305	-2.932974	1.7583138563	99.378305	-2.932974	-0.360700699763
99.367737	-2.918337	1.6491971965	99.367737	-2.918337	-0.225139709425
99.357169	-2.9037	1.61903392024	99.357169	-2.9037	-0.0564544004492
99.346601	-2.889063	1.56454843359	99.346601	-2.889063	0.0937711655164
99.336033	-2.874426	1.48498426818	99.336033	-2.874426	0.230292893395
99.325466	-2.859788	1.39651590777	99.325466	-2.859788	0.365216780808
99.314899	-2.845151	1.31925745736	99.314899	-2.845151	0.49762838618
99.304333	-2.830514	1.28938536808	99.304333	-2.830514	0.573883156522
100.133274	-3.946725	1.17344776371	100.133274	-3.946725	0.644935788051
100.122684	-3.932097	1.41000541434	100.122684	-3.932097	0.589951192562
100.112094	-3.917468	1.58680939554	100.112094	-3.917468	0.50414702105
100.101504	-3.902839	1.70873552587	100.101504	-3.902839	0.390160841396
100.090914	-3.888211	1.78210210419	100.090914	-3.888211	0.250242590798
100.080325	-3.873582	1.81176823003	100.080325	-3.873582	0.0879169311057
100.069736	-3.858953	1.84034448203	100.069736	-3.858953	-0.0599381532771
100.059148	-3.844324	1.94888574719	100.059148	-3.844324	-0.123437206669
100.04856	-3.829694	2.05010114755	100.04856	-3.829694	-0.179497102111
100.037972	-3.815065	2.10493175312	100.037972	-3.815065	-0.264899355533
100.027385	-3.800435	2.10717203349	100.027385	-3.800435	-0.38871468
100.016798	-3.785806	2.04965226645	100.016798	-3.785806	-0.560974252939
100.006211	-3.771176	1.92679032979	100.006211	-3.771176	-0.789668897319
99.995625	-3.756546	1.77396027161	99.995625	-3.756546	-1.04219581647
99.985039	-3.741916	1.98181166106	99.985039	-3.741916	-0.935216978327
99.974453	-3.727286	2.20422729168	99.974453	-3.727286	-0.81358366626
99.963868	-3.712655	2.3760764567	99.963868	-3.712655	-0.745751881436
99.953283	-3.698025	2.5145214253	99.953283	-3.698025	-0.719726595205
99.942698	-3.683394	2.64181895485	99.942698	-3.683394	-0.718974792438
99.932114	-3.668764	2.7766538272	99.932114	-3.668764	-0.730559322882
99.92153	-3.654133	2.91971884402	99.92153	-3.654133	-0.757395973816
99.910946	-3.639502	2.98789154293	99.910946	-3.639502	-0.872515167072
99.900363	-3.624871	3.04180953056	99.900363	-3.624871	-1.0340131723
99.88978	-3.610239	3.14373908845	99.88978	-3.610239	-1.20252522815
99.879198	-3.595608	3.30606107522	99.879198	-3.595608	-1.38426181691
99.868615	-3.580977	3.53827713287	99.868615	-3.580977	-1.59186885213
99.858034	-3.566345	3.84719819341	99.858034	-3.566345	-1.8340946035
99.847452	-3.551713	4.17435135706	99.847452	-3.551713	-2.05067378073
99.836871	-3.537081	4.26353205684	99.836871	-3.537081	-1.97606249203
99.82629	-3.522449	4.35303860866	99.82629	-3.522449	-1.85348198977
99.815709	-3.507817	4.53625561484	99.815709	-3.507817	-1.77483897226
99.805129	-3.493185	4.82204555712	99.805129	-3.493185	-1.74136921092
99.794549	-3.478553	5.22217333676	99.794549	-3.478553	-1.75218078585
99.78397	-3.46392	5.75423659277	99.78397	-3.46392	-1.80977475925
99.77339	-3.449288	6.40919521845	99.77339	-3.449288	-1.90975878053
99.762811	-3.434655	6.66005481934	99.762811	-3.434655	-1.87617223897
99.752233	-3.420022	6.43237943397	99.752233	-3.420022	-1.68494164388
99.741654	-3.405389	6.32250851758	99.741654	-3.405389	-1.5362704621
99.731076	-3.390756	6.37030195007	99.731076	-3.390756	-1.44477500697
99.720499	-3.376123	6.57587874922	99.720499	-3.376123	-1.41190752224
99.709921	-3.36149	6.94555210799	99.709921	-3.36149	-1.44105457228
99.699344	-3.346856	7.433016947	99.699344	-3.346856	-1.51690213229
99.688767	-3.332223	7.32435242707	99.688767	-3.332223	-1.39200237975
99.678191	-3.317589	6.92933370433	99.678191	-3.317589	-1.17355653377
99.667615	-3.302955	6.67283536016	99.667615	-3.302955	-1.00833127851
99.657039	-3.288322	6.56868595527	99.657039	-3.288322	-0.900167323505
99.646463	-3.273688	6.60536870962	99.646463	-3.273688	-0.843768441545
99.635888	-3.259053	6.78338336433	99.635888	-3.259053	-0.837729143971
99.625313	-3.244419	7.09946055956	99.625313	-3.244419	-0.879262064403
99.614738	-3.229785	7.33652621651	99.614738	-3.229785	-0.891911577977
99.604164	-3.21515	6.83753368318	99.604164	-3.21515	-0.64777674206
99.59359	-3.200516	6.41282330063	99.59359	-3.200516	-0.422312349866
99.583016	-3.185881	6.09121713987	99.583016	-3.185881	-0.221378517592
99.572443	-3.171247	5.84377008993	99.572443	-3.171247	-0.0288748590538
99.56187	-3.156612	5.63854788474	99.56187	-3.156612	0.17370536142
99.551297	-3.141977	5.45338968986	99.551297	-3.141977	0.393972276853
99.540724	-3.127342	5.30450860342	99.540724	-3.127342	0.470004221789
99.530152	-3.112706	5.20570739137	99.530152	-3.112706	0.289582841819
99.51958	-3.098071	5.10707356755	99.51958	-3.098071	0.12845839579
99.509008	-3.083436	5.01196007602	99.509008	-3.083436	-0.00627103750047
99.498437	-3.0688	4.93183482073	99.498437	-3.0688	-0.125235208516
99.487866	-3.054164	4.88145633935	99.487866	-3.054164	-0.23828173083
99.477295	-3.039529	4.86501803325	99.477295	-3.039529	-0.350238527834
99.466724	-3.024893	4.74552017212	99.466724	-3.024893	-0.424793983322
99.456154	-3.010257	4.24963928016	99.456154	-3.010257	-0.387782611926
99.445584	-2.995621	3.73989357814	99.445584	-2.995621	-0.348876889737
99.435014	-2.980985	3.25490770863	99.435014	-2.980985	-0.328359291554
99.424445	-2.966348	2.77600447497	99.424445	-2.966348	-0.333496898329
99.413876	-2.951712	2.27682949622	99.413876	-2.951712	-0.372362466521
99.403307	-2.937076	1.73875181115	99.403307	-2.937076	-0.450728651172
99.392738	-2.922439	1.25448526213	99.392738	-2.922439	-0.514846098054
99.38217	-2.907802	1.29612393136	99.38217	-2.907802	-0.305088678165
99.371602	-2.893166	1.33512997452	99.371602	-2.893166	-0.104189367762
99.361034	-2.878529	1.32784086455	99.361034	-2.878529	0.0693677469602
99.350466	-2.863892	1.28678463968	99.350466	-2.863892	0.230007858513
99.339899	-2.849255	1.22781230682	99.339899	-2.849255	0.396699509525
99.329332	-2.834618	1.16301081411	99.329332	-2.834618	0.584734572998
99.318765	-2.81998	1.11266744764	99.318765	-2.81998	0.774343148014
100.147715	-3.936179	1.09876082114	100.147715	-3.936179	0.648178212477
100.137124	-3.921551	1.29991406886	100.137124	-3.921551	0.591936866676
100.126534	-3.906923	1.45260894349	100.126534	-3.906923	0.505542331834
100.115944	-3.892294	1.55586796723	100.115944	-3.892294	0.389730924659
100.105354	-3.877666	1.61575970021	100.105354	-3.877666	0.245384723983
100.094765	-3.863037	1.63812899133	100.094765	-3.863037	0.0746007641535
100.084176	-3.848408	1.66357338955	100.084176	-3.848408	-0.0892100979228
100.073587	-3.833779	1.78897664858	100.073587	-3.833779	-0.162908131113
100.062999	-3.81915	1.91249701609	100.062999	-3.81915	-0.234003856495
100.052411	-3.804521	1.99475414209	100.052411	-3.804521	-0.336104886863
100.041824	-3.789892	2.02932069281	100.041824	-3.789892	-0.473415272782
100.031237	-3.775262	2.01049145314	100.031237	-3.775262	-0.648702764297
100.02065	-3.760632	1.94280753985	100.02065	-3.760632	-0.85386735107
100.010063	-3.746003	1.90510962607	100.010063	-3.746003	-1.008611235
99.999477	-3.731373	2.03374710759	99.999477	-3.731373	-0.978230944254
99.988892	-3.716743	2.22025215934	99.988892	-3.716743	-0.873719046732
99.978306	-3.702113	2.3763750426	99.978306	-3.702113	-0.790099326765
99.967721	-3.687482	2.50399679985	99.967721	-3.687482	-0.735558490583
99.957136	-3.672852	2.62174611961	99.957136	-3.672852	-0.702724622797
99.946552	-3.658221	2.74695371911	99.946552	-3.658221	-0.684690715344
99.935968	-3.643591	2.87695847799	99.935968	-3.643591	-0.690680874804
99.925384	-3.62896	2.94631000343	99.925384	-3.62896	-0.781190364497
99.914801	-3.614329	3.0033579021	99.914801	-3.614329	-0.924512846857
99.904218	-3.599698	3.1068973942	99.904218	-3.599698	-1.08271748479
99.893635	-3.585066	3.27058277911	99.893635	-3.585066	-1.25846093578
99.883053	-3.570435	3.50254061908	99.883053	-3.570435	-1.46087216182
99.872471	-3.555804	3.80442107414	99.872471	-3.555804	-1.69259647774
99.861889	-3.541172	4.10408891383	99.861889	-3.541172	-1.87898979602
99.851308	-3.52654	4.22759280249	99.851308	-3.52654	-1.83928212695
99.840727	-3.511909	4.33181913042	99.840727	-3.511909	-1.73261349295
99.830146	-3.497277	4.5206276891	99.830146	-3.497277	-1.66177977481
99.819566	-3.482645	4.80638484583	99.819566	-3.482645	-1.63271267821
99.808986	-3.468012	5.1971812067	99.808986	-3.468012	-1.64385042907
99.798406	-3.45338	5.69655593502	99.798406	-3.45338	-1.69327692677
99.787827	-3.438748	6.24927239043	99.787827	-3.438748	-1.76127043173
99.777248	-3.424115	6.47254156246	99.777248	-3.424115	-1.72007346194
99.766669	-3.409482	6.35102132619	99.766669	-3.409482	-1.56534953896
99.756091	-3.39485	6.26359336036	99.756091	-3.39485	-1.42474999874
99.745513	-3.380217	6.30727009207	99.745513	-3.380217	-1.33214100906
99.734935	-3.365584	6.48960351657	99.734935	-3.365584	-1.29194380536
99.724357	-3.350951	6.80303755957	99.724357	-3.350951	-1.30361392324
99.71378	-3.336317	7.13502584199	99.71378	-3.336317	-1.32998040678
99.703203	-3.321684	7.0664276993	99.703203	-3.321684	-1.2267015846
99.692627	-3.307051	6.74037735694	99.692627	-3.307051	-1.04341303134
99.68205	-3.292417	6.48425504819	99.68205	-3.292417	-0.892703043804
99.671474	-3.277783	6.35609809704	99.671474	-3.277783	-0.793019111316
99.660899	-3.263149	6.35474367901	99.660899	-3.263149	-0.74209144957
99.650323	-3.248515	6.47510269052	99.650323	-3.248515	-0.736320364174
99.639748	-3.233881	6.68010249061	99.639748	-3.233881	-0.761284928168
99.629174	-3.219247	6.73151081368	99.629174	-3.219247	-0.733409988917
99.618599	-3.204613	6.44169893875	99.618599	-3.204613	-0.585973798219
99.608025	-3.189978	6.08698842238	99.608025	-3.189978	-0.41084407214
99.597451	-3.175344	5.79809531723	99.597451	-3.175344	-0.248617805769
99.586878	-3.160709	5.57112196113	99.586878	-3.160709	-0.0922020267956
99.576304	-3.146075	5.38276456219	99.576304	-3.146075	0.0699259027715
99.565731	-3.13144	5.21639450283	99.565731	-3.13144	0.225521487348
99.555159	-3.116805	5.07928165428	99.555159	-3.116805	0.263950432536
99.544586	-3.10217	4.96880648243	99.544586	-3.10217	0.164491545017
99.534014	-3.087535	4.86373838176	99.534014	-3.087535	0.0431577704131
99.523442	-3.072899	4.76161320168	99.523442	-3.072899	-0.0604908900361
99.512871	-3.058264	4.67188837305	99.512871	-3.058264	-0.150550955243
99.5023	-3.043628	4.60647404036	99.5023	-3.043628	-0.236620269781
99.491729	-3.028993	4.55833667172	99.491729	-3.028993	-0.322130174465
99.481158	-3.014357	4.38660586396	99.481158	-3.014357	-0.371201584317
99.470588	-2.999721	3.94659436345	99.470588	-2.999721	-0.346639865276
99.460017	-2.985085	3.45117608356	99.460017	-2.985085	-0.313957651953
99.449448	-2.970449	2.97492145499	99.449448	-2.970449	-0.300270423245
99.438878	-2.955813	2.50990628282	99.438878	-2.955813	-0.310174320552
99.428309	-2.941177	2.04312397915	99.428309	-2.941177	-0.344494848605
99.41774	-2.926541	1.58587754313	99.41774	-2.926541	-0.392142898652
99.407171	-2.911904	1.2568691114	99.407171	-2.911904	-0.384952562754
99.396602	-2.897268	1.15737381287	99.396602	-2.897268	-0.264482374107
99.386034	-2.882631	1.15247617882	99.386034	-2.882631	-0.100036349983
99.375466	-2.867994	1.14491562012	99.375466	-2.867994	0.060313831008
99.364899	-2.853358	1.1207341557	99.364899	-2.853358	0.215374662419
99.354331	-2.838721	1.08619657632	99.354331	-2.838721	0.375338621794
99.343764	-2.824084	1.05187170933	99.343764	-2.824084	0.543005230456
99.333197	-2.809447	1.05147317601	99.333197	-2.809447	0.658666631375
100.162154	-3.925634	1.16662907572	100.162154	-3.925634	0.689219576934
100.151564	-3.911006	1.27935571666	100.151564	-3.911006	0.624957930041
100.140973	-3.896378	1.38148952782	100.140973	-3.896378	0.534403701457
100.130383	-3.881749	1.45704037598	100.130383	-3.881749	0.417927880782
100.119793	-3.867121	1.50856657738	100.119793	-3.867121	0.278135383033
100.109204	-3.852492	1.54834777798	100.109204	-3.852492	0.123006077624
100.098615	-3.837864	1.60931767247	100.098615	-3.837864	-0.0214224087083
100.088026	-3.823235	1.71398525845	100.088026	-3.823235	-0.136536136891
100.077438	-3.808606	1.83492703065	100.077438	-3.808606	-0.244104338478
100.06685	-3.793977	1.9404726133	100.06685	-3.793977	-0.36731799082
100.056263	-3.779348	2.01631934939	100.056263	-3.779348	-0.511649322367
100.045675	-3.764718	2.05721859417	100.045675	-3.764718	-0.672213704608
100.035088	-3.750089	2.07425892193	100.035088	-3.750089	-0.826987103364
100.024502	-3.735459	2.10952395077	100.024502	-3.735459	-0.925217324347
100.013916	-3.720829	2.19781962746	100.013916	-3.720829	-0.929125695275
100.00333	-3.706199	2.31208816264	100.00333	-3.706199	-0.870087918829
99.992744	-3.691569	2.41697648813	99.992744	-3.691569	-0.796077619696
99.982159	-3.676939	2.50559002731	99.982159	-3.676939	-0.730414068072
99.971574	-3.662309	2.58766984689	99.971574	-3.662309	-0.680312670204
99.96099	-3.647679	2.67276724481	99.96099	-3.647679	-0.650725469742
99.950406	-3.633048	2.7559121244	99.950406	-3.633048	-0.656404256457
99.939822	-3.618417	2.82579314589	99.939822	-3.618417	-0.715086780353
99.929239	-3.603787	2.89992781541	99.929239	-3.603787	-0.818923021453
99.918656	-3.589156	3.00668422231	99.918656	-3.589156	-0.950148277228
99.908073	-3.574525	3.16118187526	99.908073	-3.574525	-1.10127342064
99.89749	-3.559894	3.36690445936	99.89749	-3.559894	-1.26918115114
99.886908	-3.545262	3.61108583476	99.886908	-3.545262	-1.43835844989
99.876327	-3.530631	3.84191246869	99.876327	-3.530631	-1.55376049189
99.865745	-3.515999	4.01883733977	99.865745	-3.515999	-1.57186549995
99.855164	-3.501368	4.18349419769	99.855164	-3.501368	-1.53345336262
99.844583	-3.486736	4.39300063664	99.844583	-3.486736	-1.49474092544
99.834003	-3.472104	4.66965237661	99.834003	-3.472104	-1.47617139157
99.823423	-3.457472	5.01635997296	99.823423	-3.457472	-1.48030271424
99.812843	-3.44284	5.41324900629	99.812843	-3.44284	-1.50000884667
99.802263	-3.428207	5.78056428666	99.802263	-3.428207	-1.50874997533
99.791684	-3.413575	5.98111061771	99.791684	-3.413575	-1.46146454529
99.781105	-3.398943	6.01738002023	99.781105	-3.398943	-1.35995404851
99.770527	-3.38431	6.01968977676	99.770527	-3.38431	-1.24883132569
99.759948	-3.369677	6.07789358633	99.759948	-3.369677	-1.15965007166
99.749371	-3.355044	6.21343863127	99.749371	-3.355044	-1.10191425219
99.738793	-3.340411	6.40186286037	99.738793	-3.340411	-1.07040249651
99.728216	-3.325778	6.53989086913	99.728216	-3.325778	-1.03278976796
99.717639	-3.311145	6.5002522322	99.717639	-3.311145	-0.947341881662
99.707062	-3.296512	6.31918906929	99.707062	-3.296512	-0.826851446151
99.696486	-3.281878	6.12815641354	99.696486	-3.281878	-0.715123467895
99.68591	-3.267245	6.00054223589	99.68591	-3.267245	-0.63455603555
99.675334	-3.252611	5.95521495591	99.675334	-3.252611	-0.588827956291
99.664758	-3.237977	5.98356214527	99.664758	-3.237977	-0.57289285178
99.654183	-3.223343	6.03565937263	99.654183	-3.223343	-0.568226341351
99.643608	-3.208709	6.00484474819	99.643608	-3.208709	-0.537063800726
99.633034	-3.194075	5.84427559426	99.633034	-3.194075	-0.461743320074
99.62246	-3.179441	5.62737168494	99.62246	-3.179441	-0.36497835744
