99.883655	-4.089818	4.52832097041
99.857185	-4.05324	3.33892606186
99.830717	-4.016661	2.6178293635
99.804252	-3.980081	2.52416271042
99.777788	-3.9435	1.94385407573
99.751327	-3.906919	1.85959006354
99.724869	-3.870337	2.77175996142
99.698412	-3.833753	3.27281266981
99.671957	-3.79717	3.65409003457
99.645505	-3.760585	3.88539919242
99.619054	-3.724	3.91479607627
99.592606	-3.687414	5.99302468768
99.56616	-3.650827	9.45772255374
99.539715	-3.614239	13.1912351675
99.513273	-3.577651	15.0783644068
99.486833	-3.541062	17.9737701226
99.460395	-3.504473	20.9937567475
99.433958	-3.467882	19.061033133
99.407524	-3.431291	18.1105628472
99.381091	-3.3947	17.8524803602
99.35466	-3.358107	14.3596433941
99.328232	-3.321514	11.3237958228
99.301805	-3.284921	9.31697394314
99.275379	-3.248326	8.24042792683
99.248956	-3.211731	7.17005851874
99.222534	-3.175136	6.9201797714
99.196114	-3.13854	7.17267252399
99.169696	-3.101943	7.41711382265
99.143279	-3.065346	7.10007414763
99.116865	-3.028748	6.50070686369
99.919768	-4.063464	4.21511692562
99.893297	-4.026887	3.03925719699
99.866829	-3.990308	2.31888911826
99.840363	-3.95373	2.26405043479
99.813899	-3.91715	1.62560748525
99.787437	-3.880569	1.46762857935
99.760977	-3.843988	2.28728663718
99.73452	-3.807406	2.67967872855
99.708065	-3.770823	2.95868899557
99.681611	-3.73424	3.0900541679
99.65516	-3.697655	3.07855903553
99.628711	-3.66107	4.94086013184
99.602264	-3.624485	8.11200893369
99.575819	-3.587898	11.4825882904
99.549376	-3.551311	13.4339460844
99.522935	-3.514723	16.4225423536
99.496496	-3.478134	19.7394686896
99.470059	-3.441545	17.5358660083
99.443624	-3.404955	16.6328037182
99.417191	-3.368364	16.497095347
99.390759	-3.331772	13.3084089815
99.36433	-3.29518	10.5230058946
99.337902	-3.258588	8.68061450093
99.311476	-3.221994	7.65824756251
99.285052	-3.1854	6.62433390068
99.25863	-3.148806	6.36468769744
99.232209	-3.11221	6.57475615501
99.20579	-3.075615	6.71328000591
99.179373	-3.039018	6.29485842139
99.152957	-3.002421	5.57119127502
99.126543	-2.965823	4.99270492129
99.955879	-4.037108	3.84462629876
99.929407	-4.000532	3.4588550709
99.902938	-3.963955	3.09485912524
99.876471	-3.927377	2.7342993181
99.850007	-3.890798	2.38401586551
99.823544	-3.854219	2.26518922573
99.797084	-3.817638	2.38160948233
99.770626	-3.781057	2.5035313743
99.74417	-3.744475	2.63320974996
99.717716	-3.707893	2.77455377712
99.691264	-3.67131	3.12475050288
99.664815	-3.634725	4.28554848828
99.638367	-3.598141	6.07108096129
99.611921	-3.561555	7.94794089923
99.585478	-3.524969	9.89470688826
99.559036	-3.488382	11.7849906966
99.532596	-3.451794	12.9880633727
99.506158	-3.415206	13.038860794
99.479722	-3.378616	12.6464710881
99.453288	-3.342027	11.9858879618
99.426856	-3.305436	10.8432931642
99.400426	-3.268845	9.48318704534
99.373998	-3.232253	8.27031734607
99.347571	-3.195661	7.28433448851
99.321146	-3.159068	6.5071608842
99.294723	-3.122474	6.11671568942
99.268302	-3.08588	6.02457863604
99.241882	-3.049285	5.88857514851
99.215464	-3.012689	5.34153435166
99.189048	-2.976093	4.44924711418
99.162633	-2.939496	3.68003677996
99.991987	-4.010751	3.49580891964
99.965515	-3.974175	3.8809537631
99.939046	-3.937599	3.91735774172
99.912578	-3.901022	3.28243433062
99.886113	-3.864445	3.03725241848
99.85965	-3.827866	2.907014278
99.833189	-3.791287	2.58375595868
99.80673	-3.754707	2.3797247032
99.780273	-3.718126	2.43242140578
99.753819	-3.681545	2.55161836691
99.727366	-3.644962	2.5453782168
99.700916	-3.608379	3.30247559351
99.674467	-3.571795	4.17327302281
99.648021	-3.535211	4.42483054159
99.621577	-3.498625	6.39352373157
99.595134	-3.462039	7.41795020699
99.568694	-3.425453	7.28328573223
99.542255	-3.388865	8.61510257965
99.515819	-3.352277	8.67735600297
99.489384	-3.315688	7.9468028704
99.462951	-3.279099	8.48298154814
99.43652	-3.242508	8.28272599584
99.410091	-3.205917	7.66542281212
99.383664	-3.169326	6.82377868192
99.357238	-3.132734	6.07094262055
99.330814	-3.096141	5.64733147514
99.304392	-3.059547	5.49307116385
99.277972	-3.022953	5.43376509224
99.251553	-2.986359	4.65355328002
99.225136	-2.949763	3.2645206959
99.198721	-2.913167	1.8465842977
100.028094	-3.984392	3.03322041988
100.001621	-3.947818	3.71389184559
99.975151	-3.911243	3.97437537671
99.948683	-3.874667	3.33811436566
99.922217	-3.83809	3.15280510917
99.895753	-3.801513	3.04250404879
99.869291	-3.764934	2.67381277899
99.842832	-3.728355	2.43237751169
99.816374	-3.691776	2.48874771441
99.789919	-3.655195	2.62102789519
99.763466	-3.618614	2.56989142841
99.737015	-3.582032	3.09260086414
99.710566	-3.545449	3.58163638165
99.684119	-3.508865	3.47538808955
99.657674	-3.472281	4.88301743013
99.631231	-3.435696	5.34419077379
99.60479	-3.39911	4.65378066035
99.57835	-3.362523	6.3292954931
99.551913	-3.325936	6.73732290482
99.525478	-3.289348	6.47510191576
99.499044	-3.252759	7.1170730203
99.472613	-3.21617	7.2485649634
99.446183	-3.17958	6.92707652265
99.419755	-3.14299	6.2834311734
99.393329	-3.106398	5.61682569215
99.366904	-3.069806	5.13982222361
99.340481	-3.033214	4.81887503115
99.31406	-2.996621	4.56740937599
99.287641	-2.960027	3.75087013864
99.261223	-2.923432	2.47125214872
99.234807	-2.886837	1.29342028666
100.064198	-3.958032	2.41259914061
100.037725	-3.921459	2.80405522432
100.011254	-3.884885	2.96477739424
99.984785	-3.84831	2.8390647905
99.958318	-3.811734	2.69565052333
99.931854	-3.775158	2.62921264006
99.905392	-3.73858	2.61580229911
99.878932	-3.702002	2.65057200614
99.852474	-3.665424	2.77441930203
99.826018	-3.628844	2.98552536316
99.799564	-3.592264	3.27925456743
99.773112	-3.555682	3.71374613448
99.746662	-3.519101	4.23484845244
99.720215	-3.482518	4.77798327471
99.693769	-3.445934	5.35106659596
99.667325	-3.40935	5.70136341264
99.640883	-3.372765	5.90476232585
99.614444	-3.33618	6.30698340661
99.588006	-3.299594	6.60588679723
99.56157	-3.263007	6.6962785301
99.535135	-3.226419	6.64550253496
99.508703	-3.189831	6.46333959218
99.482273	-3.153242	6.15203507828
99.455844	-3.116652	5.74188499528
99.429417	-3.080062	5.27140955009
99.402992	-3.04347	4.69041681922
99.376568	-3.006879	4.0036960713
99.350147	-2.970287	3.30136986727
99.323727	-2.933694	2.63693230059
99.297308	-2.8971	1.98696294462
99.270892	-2.860506	1.55348368826
100.100301	-3.93167	1.74937709339
100.073827	-3.895098	2.03062763836
100.047355	-3.858525	2.17663326447
100.020885	-3.821951	2.27286315713
99.994418	-3.785377	2.11928647478
99.967953	-3.748801	2.16439191252
99.94149	-3.712225	2.50881025543
99.915029	-3.675648	2.78376794834
99.888571	-3.63907	2.9940395253
99.862114	-3.602492	3.31144222892
99.83566	-3.565912	3.89125281196
99.809207	-3.529332	4.28354677658
99.782757	-3.492751	4.97255345161
99.756308	-3.456169	6.05448821728
99.729862	-3.419587	6.17327856054
99.703418	-3.383004	6.50731290421
99.676975	-3.34642	7.03656738454
99.650535	-3.309835	6.65412658917
99.624096	-3.27325	6.80472570228
99.597659	-3.236664	7.10176108037
99.571225	-3.200077	6.36153470135
99.544792	-3.16349	5.84065386288
99.51836	-3.126902	5.48466327053
99.491931	-3.090313	5.21842361286
99.465504	-3.053723	4.99564045331
99.439078	-3.017133	4.29930546854
99.412654	-2.980542	3.19001786444
99.386231	-2.943951	2.01645528551
99.359811	-2.907359	1.62795363976
99.333392	-2.870766	1.4630342098
99.306974	-2.834173	1.28942128209
100.136401	-3.905307	1.38173420124
100.109926	-3.868736	1.56560428147
100.083454	-3.832164	1.71396506237
100.056984	-3.795592	1.97895786216
100.030516	-3.759018	2.00851051132
100.00405	-3.722444	2.14750139561
99.977586	-3.685868	2.47707841242
99.951125	-3.649292	2.74084851673
99.924666	-3.612715	2.93912621163
99.898209	-3.576138	3.27363442876
99.871753	-3.539559	3.9203813791
99.8453	-3.50298	4.31303066761
99.818849	-3.4664	5.02135632065
99.7924	-3.42982	6.10141764075
99.765953	-3.393238	6.16367188519
99.739508	-3.356656	6.42636470993
99.713065	-3.320073	6.828891736
99.686624	-3.283489	6.28120694743
99.660185	-3.246905	6.21896485879
99.633747	-3.21032	6.32730018979
99.607312	-3.173734	5.67758066777
99.580878	-3.137147	5.21083033899
99.554446	-3.10056	4.88237590066
99.528016	-3.063972	4.60275354911
99.501588	-3.027384	4.36895100186
99.475162	-2.990795	3.62966838564
99.448737	-2.954205	2.49589058402
99.422314	-2.917614	1.45503398536
99.395893	-2.881023	1.09228866369
99.369473	-2.844431	1.04237112112
99.343055	-2.807839	1.01756214165
100.172499	-3.878943	1.33785150086
100.146024	-3.842373	1.37202612417
100.119551	-3.805802	1.56684469972
100.09308	-3.76923	1.9778175448
100.066611	-3.732658	2.40072538513
100.040145	-3.696084	2.59616739271
100.013681	-3.65951	2.53968375102
99.987219	-3.622935	2.47694839545
99.960759	-3.586359	2.5563151938
99.934301	-3.549783	2.82729532401
99.907845	-3.513205	3.24437031284
99.881391	-3.476627	3.7452316272
99.85494	-3.440048	4.36627363528
99.82849	-3.403468	4.9694881318
99.802043	-3.366888	5.26654503671
99.775597	-3.330306	5.42597047578
99.749153	-3.293724	5.43367948466
99.722711	-3.257142	5.13660080102
99.696271	-3.220558	4.81186114438
99.669833	-3.183974	4.60960759498
99.643397	-3.147389	4.5569109822
99.616963	-3.110804	4.54226363841
99.590531	-3.074217	4.34311524964
99.5641	-3.03763	3.89773078404
99.537671	-3.001043	3.34445853679
99.511244	-2.964455	2.64881565117
99.484818	-2.927866	1.84340910241
99.458395	-2.891276	1.12420438009
99.431973	-2.854686	0.778080725267
99.405553	-2.818095	0.724342068362
99.379134	-2.781503	0.80182606166
100.208595	-3.852578	1.3293232074
100.182119	-3.816009	1.11677710093
100.155646	-3.779439	1.25119557663
100.129174	-3.742868	2.01787207217
100.102705	-3.706296	3.00742399374
100.076238	-3.669724	3.2754563344
100.049773	-3.633151	2.58173660977
100.02331	-3.596577	2.07753928281
99.99685	-3.560002	2.0001121864
99.970391	-3.523426	2.23297090632
99.943935	-3.48685	2.48397303397
99.917481	-3.450272	2.98037225053
99.891028	-3.413694	3.56129981854
99.864578	-3.377116	4.09130645476
99.83813	-3.340536	4.2903034536
99.811684	-3.303956	4.35476882442
99.785239	-3.267375	4.28891809472
99.758797	-3.230793	3.87524734189
99.732356	-3.19421	3.24244767791
99.705918	-3.157627	2.71313524629
99.679481	-3.121043	3.35785710352
99.653046	-3.084459	3.97268284004
99.626613	-3.047873	3.9827658977
99.600182	-3.011287	3.21667906908
99.573752	-2.974701	2.43549401264
99.547324	-2.938113	1.79073328379
99.520898	-2.901525	1.21356628916
99.494474	-2.864936	0.494222953489
99.468051	-2.828347	0.331650363138
99.44163	-2.791757	0.413505471662
99.415211	-2.755167	0.44875977233
100.244689	-3.826211	1.1989900451
100.218212	-3.789643	0.938730053251
100.191738	-3.753074	1.02890997985
100.165266	-3.716504	1.92202912325
100.138796	-3.679934	2.9222712541
100.112329	-3.643362	3.14506500147
100.085863	-3.60679	2.39113836927
100.0594	-3.570217	1.73994968453
100.032939	-3.533643	1.55977114059
100.00648	-3.497068	1.70844900426
99.980023	-3.460493	1.82991554844
99.953568	-3.423917	2.24499195938
99.927115	-3.38734	2.72402897245
99.900664	-3.350762	3.15313764245
99.874215	-3.314183	3.26800660338
99.847768	-3.277604	3.26852730203
99.821323	-3.241024	3.16604284445
99.79488	-3.204443	2.75998743283
99.768439	-3.167861	2.16815096031
99.742	-3.131279	1.74010620922
99.715563	-3.094696	2.4051629072
99.689127	-3.058112	3.07510524639
99.662693	-3.021528	3.14995547453
99.636261	-2.984943	2.50000946722
99.609831	-2.948357	1.78391712279
99.583403	-2.911771	1.2470727834
99.556976	-2.875183	0.821214100608
99.530551	-2.838596	0.284403933343
99.504128	-2.802007	0.163744252405
99.477706	-2.765418	0.251979382715
99.451286	-2.728828	0.293049474062
100.280781	-3.799842	0.948980107493
100.254304	-3.763275	0.95787404603
100.227829	-3.726708	1.20427421496
100.201356	-3.690139	1.7433003264
100.174886	-3.653569	2.25525520944
100.148418	-3.616999	2.35410451132
100.121952	-3.580428	2.00173141914
100.095488	-3.543856	1.55298639632
100.069026	-3.507283	1.32109404129
100.042566	-3.470709	1.29972064348
100.016109	-3.434135	1.37665915686
99.989653	-3.397559	1.60895172948
99.9632	-3.360983	1.89757221755
99.936748	-3.324407	2.11885754409
99.910299	-3.287829	2.22780881172
99.883851	-3.251251	2.19014604585
99.857406	-3.214671	2.03806244044
99.830962	-3.178091	1.82822784773
99.80452	-3.141511	1.56195763712
99.77808	-3.10493	1.46085571557
99.751642	-3.068347	1.70395462954
99.725206	-3.031765	1.96978514327
99.698772	-2.995181	2.00077247644
99.672339	-2.958597	1.78021135196
99.645909	-2.922012	1.41921370773
99.61948	-2.885426	1.02700930426
99.593052	-2.84884	0.643098766423
99.566627	-2.812253	0.311077174707
99.540203	-2.775666	0.187883028183
99.513781	-2.739078	0.240786074466
99.48736	-2.702489	0.356028961689
100.316871	-3.773473	0.6956957309
100.290393	-3.736907	0.842783141652
100.263918	-3.70034	1.12007982021
100.237444	-3.663773	1.5841729262
100.210973	-3.627204	1.90944214897
100.184505	-3.590635	1.94262023523
100.158038	-3.554064	1.65103333365
100.131574	-3.517493	1.15229782442
100.105111	-3.480921	0.951374602482
100.078651	-3.444349	0.900519044761
100.052193	-3.407775	0.808279311503
100.025737	-3.371201	0.990957012169
99.999282	-3.334626	1.18155206989
99.97283	-3.29805	1.21353615685
99.94638	-3.261473	1.36390444868
99.919932	-3.224896	1.26525123744
99.893486	-3.188318	0.99854235009
99.867042	-3.151739	1.07183584773
99.840599	-3.115159	0.974136878328
99.814159	-3.078579	0.879408230637
99.78772	-3.041997	1.08084326034
99.761284	-3.005416	1.10211012271
99.734849	-2.968833	1.08822757983
99.708416	-2.93225	1.17751685484
99.681984	-2.895666	1.09143363262
99.655555	-2.859081	0.825406142449
99.629127	-2.822496	0.487799589409
99.602701	-2.78591	0.170094590201
99.576276	-2.749323	0.113967506321
99.549853	-2.712736	0.23385735194
99.523432	-2.676148	0.389305762045
100.352959	-3.747102	0.57522310619
100.32648	-3.710537	0.809157891259
100.300004	-3.673971	1.11661397382
100.273531	-3.637405	1.55327975705
100.247059	-3.600837	1.81855059056
100.22059	-3.564269	1.81176157591
100.194122	-3.5277	1.50691630598
100.167657	-3.49113	0.999244978285
100.141194	-3.454559	0.763343729971
100.114733	-3.417987	0.639757033479
100.088275	-3.381414	0.427965747135
100.061818	-3.344841	0.578691526865
100.035363	-3.308267	0.732115647587
100.008911	-3.271692	0.75149843728
99.98246	-3.235116	0.865992703869
99.956011	-3.19854	0.767450096541
99.929565	-3.161963	0.514112857653
99.90312	-3.125385	0.673962284387
99.876677	-3.088806	0.652908149929
99.850236	-3.052226	0.596652021591
99.823797	-3.015646	0.689288228395
99.797359	-2.979065	0.638357461086
99.770924	-2.942484	0.617914589129
99.74449	-2.905901	0.754352024754
99.718058	-2.869318	0.757454346491
99.691628	-2.832734	0.588397633506
99.665199	-2.79615	0.342799529609
99.638773	-2.759565	0.112405476364
99.612348	-2.722979	0.0796888504989
99.585924	-2.686393	0.18110557222
99.559502	-2.649806	0.288380476037
100.389044	-3.72073	0.601916183453
100.362566	-3.684166	0.941751964168
100.336089	-3.647601	1.30200911699
100.309615	-3.611036	1.66095889372
100.283143	-3.574469	1.9432190755
100.256673	-3.537902	1.92812352422
100.230205	-3.501334	1.56554083008
100.203739	-3.464765	1.1284962314
100.177276	-3.428195	0.783859886834
100.150814	-3.391624	0.535938472772
100.124355	-3.355052	0.386895559456
100.097898	-3.31848	0.405399914541
100.071442	-3.281907	0.51301965456
100.044989	-3.245333	0.617358448997
100.018538	-3.208758	0.681806482746
99.992089	-3.172183	0.688117643234
99.965641	-3.135606	0.658259845571
99.939196	-3.099029	0.619351408086
99.912752	-3.062452	0.562813783671
99.886311	-3.025873	0.519230077821
99.859871	-2.989294	0.50472168965
99.833433	-2.952714	0.495859624098
99.806997	-2.916133	0.490967106964
99.780563	-2.879552	0.479092354522
99.75413	-2.842969	0.431012286144
99.727699	-2.806387	0.326427470858
99.70127	-2.769803	0.200905595225
99.674843	-2.733219	0.108816912124
99.648417	-2.696634	0.068969588423
99.621993	-2.660048	0.0900593322095
99.595571	-2.623462	0.125889416579
100.425128	-3.694357	0.608502970654
100.398649	-3.657794	1.05781311762
100.372172	-3.62123	1.46501395286
100.345697	-3.584665	1.75622180952
100.319224	-3.5481	2.25608331674
100.292754	-3.511533	2.33346100266
100.266285	-3.474966	1.62754061126
100.239819	-3.438398	1.14714411599
100.213355	-3.401829	0.728459246237
100.186893	-3.36526	0.386026079667
100.160433	-3.328689	0.199435666419
100.133975	-3.292118	0.196112969761
100.107519	-3.255545	0.322195050277
100.081066	-3.218972	0.527659123251
100.054614	-3.182399	0.553844265703
100.028164	-3.145824	0.662278639317
100.001716	-3.109249	0.816217526985
99.97527	-3.072673	0.600474081978
99.948826	-3.036096	0.47701977278
99.922384	-2.999518	0.419848995593
99.895944	-2.96294	0.337601292064
99.869505	-2.926361	0.371990357439
99.843068	-2.889781	0.379726080976
99.816634	-2.8532	0.235447035208
99.7902	-2.816619	0.155005952397
99.763769	-2.780037	0.0724327805178
99.73734	-2.743455	0.0133860415302
99.710912	-2.706871	0.0437083995917
99.684485	-2.670287	-0.025929861766
99.658061	-2.633703	-0.0447055526236
99.631638	-2.597117	0.0221710968011
100.46121	-3.667982	0.490960641503
100.43473	-3.63142	0.947843929689
100.408253	-3.594857	1.33077185358
100.381777	-3.558294	1.54608435937
100.355304	-3.521729	2.01944552666
100.328833	-3.485164	2.07981593478
100.302364	-3.448598	1.34335765752
100.275897	-3.412031	0.873279447059
100.249433	-3.375463	0.455268087038
100.22297	-3.338894	0.107230598515
100.19651	-3.302324	-0.0881307097863
100.170051	-3.265754	-0.106851348991
100.143595	-3.229183	0.00182386983541
100.11714	-3.192611	0.19265919855
100.090688	-3.156038	0.238655769194
100.064238	-3.119464	0.385244341192
100.037789	-3.08289	0.601548384556
100.011343	-3.046315	0.340474532834
99.984898	-3.009739	0.206207381439
99.958455	-2.973162	0.144241311455
99.932014	-2.936585	0.0422261921657
99.905575	-2.900007	0.0683316544744
99.879138	-2.863428	0.0628185682833
99.852703	-2.826848	-0.0983206300058
99.826269	-2.790268	-0.182823043922
99.799837	-2.753687	-0.250342763169
99.773407	-2.717105	-0.2857406698
99.746979	-2.680523	-0.260941202734
99.720552	-2.64394	-0.296379612875
99.694127	-2.607356	-0.30444502728
