99.434744	-3.201897	7.53645296671
99.42153	-3.183601	7.14219191486
99.408316	-3.165306	6.74961151118
99.395103	-3.14701	6.36989561341
99.38189	-3.128714	5.99490961197
99.368677	-3.110418	5.62259065026
99.355465	-3.092122	5.43045432827
99.342254	-3.073826	5.3219906068
99.329043	-3.055529	5.22251688012
99.315832	-3.037232	5.15187599888
99.302621	-3.018936	5.1382154379
99.289411	-3.000639	5.17406083819
99.276202	-2.982342	4.66103077045
99.262993	-2.964044	3.91525859656
99.249784	-2.945747	3.17754268954
99.236576	-2.927449	2.38184169751
99.223368	-2.909151	1.45877937991
99.210161	-2.890854	0.938607103805
100.04795	-4.011822	2.68052813404
100.034713	-3.993535	2.90287153955
100.021476	-3.975248	3.17626105108
100.008239	-3.956961	3.5154007154
99.995004	-3.938674	3.91717533484
99.981768	-3.920386	4.09376306248
99.968534	-3.902099	3.79450691682
99.9553	-3.883811	3.46022737842
99.942066	-3.865523	3.24785107194
99.928833	-3.847234	3.15788979576
99.915601	-3.828946	3.16382336893
99.902369	-3.810657	3.1261967162
99.889137	-3.792368	2.9399699804
99.875906	-3.774079	2.75115449299
99.862676	-3.75579	2.60508926603
99.849446	-3.7375	2.48372819138
99.836217	-3.719211	2.40143030358
99.822989	-3.700921	2.44050610718
99.80976	-3.682631	2.53640902743
99.796533	-3.66434	2.60492361318
99.783306	-3.64605	2.62303034731
99.770079	-3.627759	2.58799551108
99.756853	-3.609468	2.59679704876
99.743628	-3.591177	2.88644793879
99.730403	-3.572886	3.28394704358
99.717178	-3.554594	3.53804144268
99.703954	-3.536303	3.56591536663
99.69073	-3.518011	3.43693642608
99.677507	-3.499719	3.70499194343
99.664285	-3.481427	4.50601992093
99.651063	-3.463134	5.16924247467
99.637841	-3.444842	5.40663543404
99.62462	-3.426549	5.1641146563
99.6114	-3.408256	4.64997833788
99.59818	-3.389963	4.98198018653
99.58496	-3.37167	5.94827573175
99.571741	-3.353376	6.59501131427
99.558522	-3.335083	6.78863767384
99.545304	-3.316789	6.61722399334
99.532087	-3.298495	6.41578679519
99.518869	-3.280201	6.63053264596
99.505653	-3.261907	6.98903210466
99.492436	-3.243612	7.20160993033
99.47922	-3.225318	7.26048940645
99.466005	-3.207023	7.2142721087
99.45279	-3.188728	7.05696912587
99.439576	-3.170433	6.77524286918
99.426362	-3.152137	6.44916192281
99.413148	-3.133842	6.11692172793
99.399935	-3.115546	5.78179809804
99.386722	-3.09725	5.46431350874
99.37351	-3.078954	5.23046218692
99.360298	-3.060658	5.0551234539
99.347087	-3.042362	4.89359138805
99.333876	-3.024066	4.75055132313
99.320665	-3.005769	4.63240234946
99.307455	-2.987472	4.46334992405
99.294246	-2.969175	4.04265827775
99.281036	-2.950878	3.44027769793
99.267828	-2.932581	2.8000863897
99.254619	-2.914284	2.1361859708
99.241411	-2.895986	1.50000447708
99.228204	-2.877689	1.24132891893
100.066003	-3.998642	2.45456855955
100.052765	-3.980355	2.62979473973
100.039528	-3.962069	2.86369218352
100.026292	-3.943782	3.12992376055
100.013056	-3.925495	3.3756834463
99.99982	-3.907207	3.4742379194
99.986585	-3.88892	3.37643038033
99.973351	-3.870632	3.20433984415
99.960117	-3.852345	3.06148221183
99.946884	-3.834056	2.97685155602
99.933652	-3.815768	2.93482797745
99.92042	-3.79748	2.88313949708
99.907188	-3.779191	2.79439859794
99.893957	-3.760902	2.69925940208
99.880727	-3.742613	2.62255230499
99.867497	-3.724324	2.569689968
99.854267	-3.706034	2.55477815
99.841039	-3.687745	2.59518367434
99.82781	-3.669455	2.67183954573
99.814582	-3.651165	2.75236734108
99.801355	-3.632875	2.82175925363
99.788128	-3.614584	2.89031987883
99.774902	-3.596293	3.0122309282
99.761676	-3.578003	3.24029268389
99.748451	-3.559712	3.52124805731
99.735227	-3.54142	3.75758440759
99.722002	-3.523129	3.90902530294
99.708779	-3.504837	4.04607854337
99.695555	-3.486546	4.33544414819
99.682333	-3.468254	4.78216304999
99.669111	-3.449962	5.18025686736
99.655889	-3.431669	5.36858720365
99.642668	-3.413377	5.33195079927
99.629447	-3.395084	5.26383257367
99.616227	-3.376791	5.48782987679
99.603007	-3.358498	5.95415907759
99.589788	-3.340205	6.355871158
99.576569	-3.321912	6.54805954045
99.563351	-3.303618	6.5643790666
99.550133	-3.285324	6.55411966268
99.536915	-3.267031	6.64071290123
99.523698	-3.248736	6.77309759831
99.510482	-3.230442	6.85276438242
99.497266	-3.212148	6.85016880156
99.48405	-3.193853	6.77227162074
99.470835	-3.175558	6.62030675455
99.457621	-3.157264	6.40200370565
99.444407	-3.138968	6.14457613871
99.431193	-3.120673	5.87003509139
99.417979	-3.102378	5.5870257963
99.404767	-3.084082	5.30654597111
99.391554	-3.065787	5.04259156303
99.378342	-3.047491	4.79076968108
99.365131	-3.029195	4.54187755711
99.35192	-3.010898	4.29721408316
99.338709	-2.992602	4.05252165513
99.325499	-2.974305	3.76924978205
99.312289	-2.956009	3.39656451186
99.299079	-2.937712	2.94618439355
99.28587	-2.919415	2.46672264298
99.272662	-2.901118	1.99961585904
99.259454	-2.882821	1.62417174948
99.246246	-2.864523	1.4738349175
100.084055	-3.985461	2.16458018924
100.070817	-3.967175	2.31735578963
100.05758	-3.948888	2.51360030298
100.044343	-3.930602	2.71441727914
100.031107	-3.912315	2.87834471802
100.017872	-3.894028	2.96030120893
100.004637	-3.875741	2.94903292574
99.991402	-3.857454	2.88070983122
99.978168	-3.839166	2.79779650111
99.964935	-3.820878	2.72490924683
99.951702	-3.80259	2.67179814531
99.93847	-3.784302	2.63920862382
99.925238	-3.766013	2.62235709907
99.912007	-3.747725	2.61572984829
99.898777	-3.729436	2.61857592716
99.885546	-3.711147	2.63505640801
99.872317	-3.692858	2.67204419682
99.859088	-3.674568	2.73423629048
99.845859	-3.656279	2.82002273607
99.832631	-3.637989	2.92579103281
99.819404	-3.619699	3.04991549088
99.806177	-3.601409	3.19542358776
99.792951	-3.583118	3.37272338835
99.779725	-3.564828	3.59107681305
99.766499	-3.546537	3.8420843054
99.753275	-3.528246	4.1043018876
99.74005	-3.509955	4.36535418598
99.726826	-3.491664	4.63490870686
99.713603	-3.473372	4.92595489898
99.70038	-3.45508	5.21815144932
99.687158	-3.436789	5.46803509777
99.673936	-3.418496	5.64282917173
99.660715	-3.400204	5.74701893756
99.647494	-3.381912	5.83881344563
99.634273	-3.363619	5.99006341133
99.621053	-3.345326	6.19967842137
99.607834	-3.327033	6.40469784478
99.594615	-3.30874	6.55482503069
99.581396	-3.290447	6.64345272353
99.568178	-3.272153	6.68742842011
99.554961	-3.25386	6.69635246449
99.541744	-3.235566	6.67078859639
99.528527	-3.217272	6.61213819577
99.515311	-3.198978	6.52107745121
99.502095	-3.180683	6.39742265901
99.48888	-3.162389	6.24129166566
99.475665	-3.144094	6.05640290346
99.462451	-3.125799	5.85036625445
99.449237	-3.107504	5.63028511676
99.436024	-3.089209	5.39622435904
99.422811	-3.070914	5.13940443087
99.409598	-3.052618	4.84890826668
99.396386	-3.034323	4.52483498052
99.383174	-3.016027	4.17984746316
99.369963	-2.997731	3.82668573205
99.356752	-2.979435	3.4744424849
99.343542	-2.961138	3.13148095497
99.330331	-2.942842	2.80066933546
99.317122	-2.924545	2.472563452
99.303913	-2.906249	2.14464251967
99.290704	-2.887952	1.84090670441
99.277496	-2.869655	1.61603843981
99.264288	-2.851357	1.5312283215
100.102107	-3.97228	1.80890092176
100.088869	-3.953994	1.97514947621
100.075631	-3.935708	2.1611278297
100.062394	-3.917422	2.32452607732
100.049158	-3.899135	2.44694491205
100.035922	-3.880848	2.52449194067
100.022687	-3.862562	2.56085225868
100.009453	-3.844274	2.55639036897
99.996219	-3.825987	2.51379025547
99.982985	-3.807699	2.44478193435
99.969752	-3.789412	2.38091596582
99.95652	-3.771124	2.37538888716
99.943288	-3.752836	2.43769515419
99.930057	-3.734547	2.52032579077
99.916826	-3.716259	2.60015834841
99.903596	-3.69797	2.68087586953
99.890366	-3.679681	2.76555755176
99.877137	-3.661392	2.85261844939
99.863908	-3.643102	2.95319537706
99.85068	-3.624813	3.08791075763
99.837452	-3.606523	3.2669332481
99.824225	-3.588233	3.48081772108
99.810999	-3.569943	3.69997196652
99.797773	-3.551653	3.91473901297
99.784547	-3.533362	4.15976316393
99.771322	-3.515071	4.46418445735
99.758098	-3.496781	4.82998454179
99.744874	-3.478489	5.21797358923
99.73165	-3.460198	5.52918834142
99.718427	-3.441907	5.71303365268
99.705205	-3.423615	5.85381535328
99.691983	-3.405323	6.02437819512
99.678761	-3.387031	6.22798544217
99.66554	-3.368739	6.40308903195
99.652319	-3.350447	6.4756186305
99.639099	-3.332154	6.49200075288
99.62588	-3.313861	6.54387061297
99.612661	-3.295568	6.65176141005
99.599442	-3.277275	6.78988059666
99.586224	-3.258982	6.87301407661
99.573006	-3.240689	6.80017831997
99.559789	-3.222395	6.61469352927
99.546572	-3.204101	6.41758685016
99.533356	-3.185807	6.23555539502
99.52014	-3.167513	6.06245483341
99.506924	-3.149219	5.895335673
99.493709	-3.130924	5.73198069116
99.480495	-3.11263	5.56631596462
99.467281	-3.094335	5.39745700877
99.454067	-3.07604	5.21909470566
99.440854	-3.057745	4.99637992793
99.427641	-3.03945	4.67843841252
99.414429	-3.021154	4.26961583174
99.401217	-3.002859	3.81994297692
99.388006	-2.984563	3.35444084573
99.374795	-2.966267	2.89011904952
99.361584	-2.947971	2.48942602313
99.348374	-2.929675	2.21756088414
99.335164	-2.911378	2.0179708267
99.321955	-2.893082	1.82250026563
99.308746	-2.874785	1.63581477316
99.295537	-2.856488	1.49916679669
99.282329	-2.838191	1.46156955467
100.120158	-3.959099	1.40712354457
100.10692	-3.940813	1.6425660188
100.093682	-3.922527	1.84205965826
100.080445	-3.904241	1.982204919
100.067209	-3.885955	2.06784354428
100.053973	-3.867668	2.13564059198
100.040737	-3.849382	2.2179225846
100.027503	-3.831095	2.26973622736
100.014268	-3.812808	2.25902914911
100.001035	-3.79452	2.17970889746
99.987802	-3.776233	2.06264300686
99.974569	-3.757945	2.07839960828
99.961337	-3.739657	2.26169141655
99.948106	-3.721369	2.43472514963
99.934875	-3.703081	2.57828507522
99.921644	-3.684792	2.7148223893
99.908414	-3.666504	2.84861816937
99.895185	-3.648215	2.94954380854
99.881956	-3.629926	3.04787882708
99.868728	-3.611636	3.20401481943
99.8555	-3.593347	3.43959433921
99.842273	-3.575057	3.74332609543
99.829046	-3.556767	4.01191726465
99.81582	-3.538477	4.18533094
99.802594	-3.520187	4.40761795767
99.789369	-3.501896	4.74984413812
99.776145	-3.483606	5.23031315242
99.76292	-3.465315	5.80968941054
99.749697	-3.447024	6.19230590699
99.736474	-3.428733	6.1885453596
99.723251	-3.410441	6.19246226309
99.710029	-3.39215	6.35920462938
99.696807	-3.373858	6.69033672006
99.683586	-3.355566	7.01373869515
99.670365	-3.337274	6.94955251023
99.657145	-3.318981	6.72076892365
99.643925	-3.300689	6.62972788328
99.630706	-3.282396	6.706669951
99.617487	-3.264103	6.93489297679
99.604268	-3.24581	7.14810811483
99.591051	-3.227517	6.9366559706
99.577833	-3.209224	6.5355021756
99.564616	-3.19093	6.20942296285
99.5514	-3.172637	5.9535222361
99.538184	-3.154343	5.73535740934
99.524968	-3.136049	5.55693255836
99.511753	-3.117754	5.41618330467
99.498538	-3.09946	5.28227755416
99.485324	-3.081165	5.15863412678
99.47211	-3.062871	5.05279049986
99.458897	-3.044576	4.91121535464
99.445684	-3.026281	4.55785279502
99.432471	-3.007986	4.02485830066
99.419259	-2.98969	3.47004806839
99.406048	-2.971395	2.90400433721
99.392837	-2.953099	2.30598154868
99.379626	-2.934803	1.78888222864
99.366416	-2.916507	1.64539171453
99.353206	-2.898211	1.60225021273
99.339996	-2.879915	1.51685276467
99.326787	-2.861618	1.40747674198
99.313578	-2.843322	1.3119415184
99.30037	-2.825025	1.30068396457
100.138208	-3.945917	1.10015830869
100.12497	-3.927632	1.39789709667
100.111732	-3.909346	1.59708472654
100.098495	-3.89106	1.71365871868
100.085259	-3.872774	1.75738230476
100.072023	-3.854488	1.78221560001
100.058787	-3.836202	1.94558163089
100.045552	-3.817915	2.05432544589
100.032318	-3.799628	2.08302271578
100.019084	-3.781341	2.01921429791
100.005851	-3.763054	1.85587459717
99.992618	-3.744766	1.8819080408
99.979386	-3.726479	2.17426244871
99.966154	-3.708191	2.39051161243
99.952923	-3.689903	2.55875223804
99.939693	-3.671615	2.72145676163
99.926463	-3.653326	2.90807026563
99.913233	-3.635037	2.99285972856
99.900004	-3.616749	3.07042695871
99.886776	-3.598459	3.23528953587
99.873548	-3.58017	3.50648543055
99.86032	-3.561881	3.90049793046
99.847093	-3.543591	4.26050893441
99.833867	-3.525301	4.31913554076
99.820641	-3.507011	4.51526782624
99.807416	-3.488721	4.87423441964
99.794191	-3.470431	5.41734283917
99.780967	-3.45214	6.17525253404
99.767743	-3.433849	6.73525594692
99.754519	-3.415558	6.42100991654
99.741297	-3.397267	6.32593971893
99.728074	-3.378976	6.4803999363
99.714852	-3.360684	6.88918735959
99.701631	-3.342392	7.5172958468
99.68841	-3.324101	7.15757086403
99.67519	-3.305808	6.72490098651
99.66197	-3.287516	6.53647014479
99.64875	-3.269224	6.57202174441
99.635531	-3.250931	6.8300298081
99.622313	-3.232638	7.2592845794
99.609095	-3.214345	6.83036373487
99.595877	-3.196052	6.30198635385
99.58266	-3.177759	5.92690481183
99.569443	-3.159465	5.64883932451
99.556227	-3.141172	5.41410052396
99.543011	-3.122878	5.23158464364
99.529796	-3.104584	5.10818217639
99.516581	-3.08629	4.98579652448
99.503367	-3.067996	4.88000766718
99.490153	-3.049701	4.81856473053
99.476939	-3.031406	4.81112713351
99.463726	-3.013112	4.39224842123
99.450514	-2.994817	3.73681243343
99.437301	-2.976521	3.12621717623
99.42409	-2.958226	2.52376105982
99.410878	-2.939931	1.88405763602
99.397667	-2.921635	1.27734971684
99.384457	-2.903339	1.25000092152
99.371247	-2.885043	1.28400153339
99.358037	-2.866747	1.25814605008
99.344828	-2.848451	1.19685634217
99.331619	-2.830154	1.12309176761
99.318411	-2.811858	1.10805391859
100.156258	-3.932735	1.10642988534
100.14302	-3.91445	1.29956779118
100.129782	-3.896165	1.44859965298
100.116545	-3.877879	1.5390948186
100.103308	-3.859593	1.58386708689
100.090072	-3.841307	1.64510485075
100.076836	-3.823021	1.79296191344
100.063601	-3.804735	1.93048191429
100.050367	-3.786448	2.0112629175
100.037133	-3.768161	2.02377642007
100.023899	-3.749874	1.99447991552
100.010666	-3.731587	2.06221461528
99.997434	-3.7133	2.24110438854
99.984202	-3.695012	2.40730637111
99.970971	-3.676724	2.5421149148
99.95774	-3.658436	2.67214054377
99.94451	-3.640148	2.80627419019
99.93128	-3.62186	2.89809210301
99.918051	-3.603571	2.99235055233
99.904823	-3.585282	3.15726602301
99.891595	-3.566993	3.41407413407
99.878367	-3.548704	3.75441940343
99.86514	-3.530415	4.0454558797
99.851913	-3.512125	4.21461611075
99.838687	-3.493835	4.44012730137
99.825462	-3.475545	4.79297486489
99.812237	-3.457255	5.28354148473
99.799012	-3.438965	5.86550265882
99.785788	-3.420674	6.21921118332
99.772565	-3.402383	6.19406147645
99.759342	-3.384093	6.16624991884
99.746119	-3.365801	6.29760144553
99.732897	-3.34751	6.58643955735
99.719676	-3.329219	6.849198842
99.706455	-3.310927	6.70787544136
99.693234	-3.292635	6.39805988828
99.680014	-3.274343	6.20432337834
99.666794	-3.256051	6.17509693573
99.653575	-3.237759	6.2911244682
99.640357	-3.219466	6.39180781983
99.627138	-3.201173	6.18630326607
99.613921	-3.18288	5.83494987756
99.600703	-3.164587	5.53968952912
99.587487	-3.146294	5.31054113496
99.57427	-3.128001	5.11787498149
99.561054	-3.109707	4.95479596749
99.547839	-3.091413	4.8119007216
99.534624	-3.073119	4.67112152059
99.521409	-3.054825	4.53833993481
99.508195	-3.036531	4.42552726257
99.494981	-3.018237	4.2839371715
99.481768	-2.999942	3.90282726025
99.468555	-2.981647	3.34230410164
99.455343	-2.963352	2.7741856296
99.442131	-2.945057	2.22021784953
99.42892	-2.926762	1.68710170656
99.415708	-2.908466	1.27852400134
99.402498	-2.890171	1.11539989016
99.389288	-2.871875	1.0800608229
99.376078	-2.853579	1.05680921413
99.362868	-2.835283	1.02734667101
99.349659	-2.816987	1.00769520998
99.336451	-2.798691	1.05389855457
100.174308	-3.919553	1.22825318181
100.161069	-3.901268	1.30229638855
100.147831	-3.882983	1.3769537868
100.134594	-3.864698	1.43510093839
100.121357	-3.846412	1.49105145494
100.108121	-3.828126	1.58041865641
100.094885	-3.80984	1.72042744469
100.08165	-3.791554	1.88077785228
100.068415	-3.773268	2.02576801371
100.055181	-3.754981	2.13684226643
100.041947	-3.736695	2.22088022265
100.028714	-3.718408	2.30723583763
100.015482	-3.700121	2.39808830918
100.00225	-3.681833	2.47197829403
99.989018	-3.663546	2.52920931376
99.975787	-3.645258	2.58640813564
99.962557	-3.62697	2.65221355022
99.949327	-3.608682	2.7263962201
99.936098	-3.590393	2.82798076007
99.922869	-3.572105	2.98245172493
99.909641	-3.553816	3.19860716205
99.896413	-3.535527	3.45804766074
99.883186	-3.517238	3.71137434512
99.869959	-3.498949	3.9454617056
99.856733	-3.480659	4.21056183125
99.843507	-3.462369	4.54399396908
99.830282	-3.444079	4.94098527513
99.817058	-3.425789	5.33769163936
99.803833	-3.407499	5.60933489283
99.79061	-3.389208	5.72168145813
99.777387	-3.370918	5.78518310784
99.764164	-3.352627	5.89094150337
99.750942	-3.334336	6.03524491785
99.73772	-3.316045	6.11632036915
99.724499	-3.297753	6.03400367751
99.711278	-3.279462	5.84828998212
99.698058	-3.26117	5.67808547891
99.684838	-3.242878	5.58074827453
99.671619	-3.224586	5.54823462555
99.6584	-3.206293	5.50842789831
99.645182	-3.188001	5.39001201009
99.631964	-3.169708	5.22338872813
99.618746	-3.151415	5.06912790296
99.605529	-3.133122	4.93877874053
99.592313	-3.114829	4.81450621438
99.579097	-3.096536	4.67890867193
99.565881	-3.078242	4.5220651665
99.552666	-3.059948	4.34478294692
99.539451	-3.041655	4.15563243564
99.526237	-3.023361	3.95401939924
99.513023	-3.005066	3.70209599387
99.49981	-2.986772	3.34254455178
99.486597	-2.968477	2.89168064857
99.473384	-2.950183	2.41119184089
99.460172	-2.931888	1.93976267147
99.44696	-2.913593	1.51232461511
99.433749	-2.895298	1.18723234175
99.420538	-2.877002	1.00175122791
99.407328	-2.858707	0.920966657211
99.394118	-2.840411	0.88881457034
99.380908	-2.822115	0.880109093904
99.367699	-2.803819	0.900214458002
99.35449	-2.785523	0.971431012559
100.192357	-3.90637	1.33825914814
100.179118	-3.888086	1.33610217256
100.16588	-3.869801	1.34107634057
100.152642	-3.851516	1.35600884715
100.139405	-3.83323	1.39815487584
100.126169	-3.814945	1.4939374146
100.112933	-3.796659	1.65520948773
100.099697	-3.778373	1.86465435345
100.086463	-3.760087	2.09157259741
100.073228	-3.741801	2.30685060905
100.059995	-3.723515	2.4795253922
100.046761	-3.705228	2.57832661474
100.033529	-3.686941	2.59623863863
100.020297	-3.668654	2.56307687234
100.007065	-3.650367	2.5168831476
99.993834	-3.632079	2.48338091165
99.980604	-3.613791	2.47975542409
99.967374	-3.595503	2.51852536488
99.954144	-3.577215	2.60659203911
99.940915	-3.558927	2.74284175992
99.927687	-3.540638	2.92124048162
99.914459	-3.52235	3.13136967104
99.901232	-3.504061	3.36142012995
99.888005	-3.485772	3.61039645517
99.874778	-3.467482	3.88857961478
99.861553	-3.449193	4.20087805483
99.848327	-3.430903	4.53260422976
99.835102	-3.412613	4.84125562659
99.821878	-3.394323	5.07401324859
99.808654	-3.376033	5.21733320005
99.795431	-3.357743	5.30926061231
99.782208	-3.339452	5.38929614638
99.768986	-3.321161	5.4548975432
99.755764	-3.30287	5.46348260396
99.742542	-3.284579	5.38073439304
99.729322	-3.266288	5.22564443295
99.716101	-3.247996	5.0476773879
99.702881	-3.229704	4.8836177482
99.689662	-3.211412	4.74792952647
99.676443	-3.19312	4.64592445593
99.663224	-3.174828	4.58386787552
99.650006	-3.156536	4.55962701439
99.636789	-3.138243	4.5569262971
99.623571	-3.11995	4.55338859682
99.610355	-3.101657	4.51896180376
99.597139	-3.083364	4.42097963231
99.583923	-3.065071	4.24824074862
99.570707	-3.046777	4.02218961776
99.557493	-3.028484	3.76811205568
99.544278	-3.01019	3.49286201302
99.531064	-2.991896	3.18640690854
99.517851	-2.973602	2.83786009335
99.504637	-2.955307	2.45227058388
99.491425	-2.937013	2.04681312675
99.478212	-2.918718	1.6441452085
99.465001	-2.900423	1.27855081116
99.451789	-2.882129	0.996147020006
99.438578	-2.863833	0.825611107394
99.425368	-2.845538	0.748745989524
99.412157	-2.827243	0.724782842472
99.398948	-2.808947	0.730493396476
99.385738	-2.790651	0.767370272137
99.372529	-2.772355	0.849072314557
100.210405	-3.893187	1.44183225366
100.197167	-3.874903	1.37347814443
100.183928	-3.856618	1.30957941278
100.17069	-3.838333	1.26794761147
100.157453	-3.820048	1.27048550229
100.144217	-3.801763	1.35876985255
100.13098	-3.783478	1.55938523581
100.117745	-3.765192	1.84606585497
100.10451	-3.746906	2.17739284434
100.091275	-3.72862	2.52167535964
100.078042	-3.710334	2.81207025628
100.064808	-3.692048	2.92766411876
100.051575	-3.673761	2.83824874772
100.038343	-3.655474	2.66355346075
100.025111	-3.637187	2.49267867143
100.01188	-3.6189	2.35351230225
99.99865	-3.600612	2.26904069467
99.985419	-3.582325	2.26691886446
99.97219	-3.564037	2.34322809767
99.958961	-3.545749	2.46505584069
99.945732	-3.52746	2.61184495633
99.932504	-3.509172	2.78211869439
99.919277	-3.490883	2.98774387674
99.90605	-3.472594	3.23669737234
99.892823	-3.454305	3.51801583888
99.879597	-3.436016	3.81650767088
99.866372	-3.417727	4.11649129519
99.853147	-3.399437	4.39005335254
99.839922	-3.381147	4.59972400652
99.826698	-3.362857	4.73101918422
99.813475	-3.344567	4.81068616143
99.800252	-3.326277	4.86608857074
99.787029	-3.307986	4.89585423787
99.773807	-3.289695	4.87327175306
99.760586	-3.271404	4.7721623353
99.747365	-3.253113	4.60003460036
99.734144	-3.234822	4.38491466794
99.720924	-3.21653	4.1455638303
99.707704	-3.198239	3.90513594357
99.694485	-3.179947	3.73668555123
99.681266	-3.161655	3.7352918648
99.668048	-3.143363	3.86893702825
99.65483	-3.12507	4.03407922299
99.641613	-3.106778	4.18205711769
99.628396	-3.088485	4.27071574335
99.61518	-3.070192	4.22213726677
99.601964	-3.051899	4.01021152594
99.588749	-3.033606	3.71386396851
99.575533	-3.015312	3.39168133572
99.562319	-2.997019	3.05497443413
99.549105	-2.978725	2.70993467904
99.535891	-2.960431	2.37183531753
99.522678	-2.942137	2.03931864031
99.509465	-2.923843	1.69388633392
99.496252	-2.905548	1.3343014311
99.48304	-2.887254	0.98769052651
99.469829	-2.868959	0.717608069731
99.456618	-2.850664	0.584198299937
99.443407	-2.832369	0.55279343511
99.430197	-2.814074	0.556656622282
99.416987	-2.795778	0.572526406315
99.403777	-2.777483	0.608196256555
99.390568	-2.759187	0.689993608342
100.228453	-3.880004	1.55230471192
100.215214	-3.86172	1.39942961592
100.201976	-3.843435	1.26646455947
100.188738	-3.825151	1.15949549494
100.175501	-3.806866	1.0886882092
100.162264	-3.788581	1.14166621731
100.149027	-3.770296	1.41022995599
100.135792	-3.752011	1.80244759654
100.122557	-3.733725	2.24554400992
100.109322	-3.715439	2.74401463511
100.096088	-3.697153	3.24605937706
100.082854	-3.678867	3.40266672533
100.069622	-3.660581	3.09370801958
100.056389	-3.642294	2.73781864319
100.043157	-3.624007	2.43897899768
100.029926	-3.60572	2.18531025258
100.016695	-3.587433	1.9957667593
100.003465	-3.569146	1.96022059198
99.990235	-3.550858	2.05521660335
99.977006	-3.53257	2.174468785
99.963777	-3.514282	2.2903102718
99.950549	-3.495994	2.40961645616
99.937321	-3.477706	2.57964937922
99.924094	-3.459417	2.83678427536
99.910867	-3.441128	3.12579226826
99.897641	-3.422839	3.41665417981
99.884416	-3.40455	3.70455264199
99.87119	-3.38626	3.97659656719
99.857966	-3.367971	4.17782168021
99.844742	-3.349681	4.26632030714
99.831518	-3.331391	4.31006113418
99.818295	-3.313101	4.34265116151
99.805072	-3.294811	4.3617597682
99.79185	-3.27652	4.33741483705
99.778628	-3.258229	4.21108654975
99.765407	-3.239939	3.99917162043
99.752186	-3.221647	3.73960989316
99.738966	-3.203356	3.42498011508
99.725746	-3.185065	3.04623937862
99.712527	-3.166773	2.72633796584
99.699308	-3.148481	2.82567991763
99.68609	-3.130189	3.18391675892
99.672872	-3.111897	3.52103712993
99.659654	-3.093605	3.82716365666
99.646437	-3.075312	4.09615487786
99.633221	-3.05702	4.12163503165
99.620005	-3.038727	3.79714924838
99.606789	-3.020434	3.40807608079
99.593574	-3.002141	3.02574621084
99.580359	-2.983847	2.63486071996
99.567145	-2.965554	2.24238597733
99.553931	-2.94726	1.92128014496
99.540718	-2.928966	1.66108500059
99.527505	-2.910672	1.37426429136
99.514292	-2.892378	1.04174290775
99.50108	-2.874084	0.672666127882
99.487868	-2.855789	0.356222567012
99.474657	-2.837495	0.303569310632
99.461446	-2.8192	0.360455880593
99.448235	-2.800905	0.401648223256
99.435025	-2.78261	0.42066245414
99.421816	-2.764314	0.430941613951
99.408606	-2.746019	0.493245171244
100.246501	-3.86682	1.60276339603
100.233262	-3.848536	1.37761928173
100.220023	-3.830252	1.20595524324
100.206785	-3.811968	1.05636817609
100.193547	-3.793684	0.899735818353
100.18031	-3.775399	0.828720844126
100.167074	-3.757114	1.25189929075
100.153838	-3.738829	1.73994644308
100.140603	-3.720544	2.24651708734
100.127368	-3.702258	2.82787923516
100.114134	-3.683972	3.52818097589
100.1009	-3.665686	3.76643215493
100.087667	-3.6474	3.18712996956
100.074435	-3.629114	2.71972063581
100.061203	-3.610827	2.3462661561
100.047971	-3.59254	2.01091255795
100.03474	-3.574253	1.68391331711
100.02151	-3.555966	1.64788287065
100.00828	-3.537679	1.78963832775
99.99505	-3.519391	1.90358652455
99.981821	-3.501104	1.98902263273
99.968593	-3.482816	2.04964128053
99.955365	-3.464527	2.14891803754
99.942138	-3.446239	2.44655519827
99.928911	-3.42795	2.73588990914
99.915685	-3.409662	3.01143179506
99.902459	-3.391373	3.28329124839
99.889234	-3.373084	3.55931330009
99.876009	-3.354794	3.78243667189
99.862785	-3.336505	3.79095599053
99.849561	-3.318215	3.79947752596
99.836338	-3.299925	3.81295208585
99.823115	-3.281635	3.82710557638
99.809892	-3.263345	3.83281978757
99.796671	-3.245054	3.66965983992
99.783449	-3.226764	3.42709927875
99.770228	-3.208473	3.14969883827
99.757008	-3.190182	2.80669962454
99.743788	-3.17189	2.35558799823
99.730569	-3.153599	1.8009304221
99.71735	-3.135308	2.08608384576
99.704131	-3.117016	2.60857607678
99.690913	-3.098724	3.03439806391
99.677695	-3.080432	3.42201668701
99.664478	-3.06214	3.83120085968
99.651261	-3.043847	3.96009179967
99.638045	-3.025554	3.49337077457
99.624829	-3.007262	3.06671752229
99.611614	-2.988969	2.66968461341
99.598399	-2.970676	2.25932149609
99.585185	-2.952382	1.80745969104
99.571971	-2.934089	1.52238923114
99.558757	-2.915795	1.35348942567
99.545544	-2.897501	1.11901274034
99.532331	-2.879207	0.819703434191
99.519119	-2.860913	0.458312509356
99.505907	-2.842619	0.0805665676727
99.492695	-2.824325	0.123860398208
99.479484	-2.80603	0.230419346564
99.466274	-2.787735	0.290083650614
99.453064	-2.76944	0.309712917785
99.439854	-2.751145	0.292886390638
99.426644	-2.73285	0.293588318018
100.264548	-3.853636	1.43767524921
100.251308	-3.835353	1.27475641613
100.23807	-3.817069	1.12955462519
100.224831	-3.798785	1.00107584513
100.211594	-3.780501	0.880811186503
100.198357	-3.762216	0.88548567657
100.18512	-3.743931	1.2329009313
100.171884	-3.725647	1.68849639192
100.158649	-3.707362	2.16146512364
100.145414	-3.689076	2.66596007395
100.132179	-3.670791	3.14908647985
100.118946	-3.652505	3.27220358083
100.105712	-3.634219	2.96126349985
100.09248	-3.615933	2.57250619056
100.079247	-3.597647	2.21852440777
100.066016	-3.57936	1.89202215145
100.052785	-3.561074	1.61178252604
100.039554	-3.542787	1.53166071541
100.026324	-3.524499	1.59997501784
100.013094	-3.506212	1.67619272925
99.999865	-3.487925	1.7368559291
99.986637	-3.469637	1.78998498869
99.973409	-3.451349	1.8999759063
99.960181	-3.433061	2.12121063131
99.946954	-3.414772	2.36778948961
99.933728	-3.396484	2.60704601943
99.920502	-3.378195	2.83959485974
99.907277	-3.359906	3.06103059762
99.894052	-3.341617	3.21578137704
99.880827	-3.323328	3.26238924845
99.867603	-3.305038	3.27067290748
99.85438	-3.286749	3.27109245032
99.841157	-3.268459	3.26261540675
99.827934	-3.250169	3.22095294588
99.814712	-3.231879	3.08559563058
99.801491	-3.213588	2.87836415591
99.78827	-3.195298	2.63140255792
99.775049	-3.177007	2.33616274209
99.761829	-3.158716	1.99256901679
99.74861	-3.140425	1.72936448186
99.73539	-3.122133	1.85375389929
99.722172	-3.103842	2.21789009725
99.708953	-3.08555	2.58446612147
99.695736	-3.067258	2.92045802615
99.682518	-3.048966	3.20486112081
99.669302	-3.030674	3.25140220775
99.656085	-3.012382	3.00240888938
99.642869	-2.994089	2.66957169685
99.629654	-2.975796	2.32827179888
99.616439	-2.957503	1.97019726286
99.603224	-2.93921	1.6038950575
99.59001	-2.920917	1.33997107031
99.576796	-2.902624	1.1554725712
99.563583	-2.88433	0.94365986512
99.55037	-2.866036	0.689148266015
99.537157	-2.847743	0.410956334698
99.523945	-2.829449	0.19226030713
99.510734	-2.811154	0.144337846407
99.497522	-2.79286	0.190010666748
99.484312	-2.774565	0.236210575096
99.471101	-2.756271	0.262603288593
99.457891	-2.737976	0.275766394712
99.444682	-2.719681	0.335747797473
100.282594	-3.840452	1.19627343421
100.269355	-3.822168	1.12043752753
100.256116	-3.803885	1.04107199531
100.242877	-3.785601	0.978161885294
100.22964	-3.767317	0.956910380962
100.216402	-3.749033	1.04802782269
100.203166	-3.730749	1.29936187951
100.189929	-3.712464	1.64843392697
100.176694	-3.694179	2.02715830497
100.163459	-3.675894	2.39504994524
100.150224	-3.657609	2.67702695926
100.13699	-3.639324	2.75260072301
100.123757	-3.621038	2.60580626045
100.110524	-3.602752	2.34633619791
100.097292	-3.584466	2.06175966305
100.08406	-3.56618	1.79125308302
100.070829	-3.547893	1.57757077198
100.057598	-3.529607	1.47101916505
100.044368	-3.51132	1.4571920941
100.031138	-3.493033	1.48253717345
100.017909	-3.474745	1.51991570455
100.00468	-3.456458	1.57474749071
99.991452	-3.43817	1.67522256772
99.978224	-3.419882	1.83276033276
99.964997	-3.401594	2.02012895924
99.951771	-3.383306	2.21059588884
99.938545	-3.365017	2.39144752406
99.925319	-3.346729	2.55035284747
99.912094	-3.32844	2.6642885244
99.898869	-3.310151	2.72231939514
99.885645	-3.291862	2.73972527861
99.872422	-3.273572	2.73069358331
99.859198	-3.255283	2.69749593147
99.845976	-3.236993	2.6307245015
99.832754	-3.218703	2.51771986996
99.819532	-3.200413	2.3627191123
99.806311	-3.182122	2.17560400605
99.79309	-3.163832	1.96426651741
99.77987	-3.145541	1.75869938241
99.76665	-3.12725	1.64582668326
99.753431	-3.108959	1.71306495383
99.740212	-3.090668	1.9209462563
99.726994	-3.072376	2.16966590185
99.713776	-3.054085	2.39864416307
99.700558	-3.035793	2.55849252417
99.687341	-3.017501	2.58240619703
99.674125	-2.999209	2.45977275693
99.660908	-2.980916	2.25102528652
99.647693	-2.962624	2.00385521465
99.634478	-2.944331	1.73547735355
99.621263	-2.926038	1.46790140134
99.608048	-2.907745	1.23492983179
99.594835	-2.889452	1.03202344893
99.581621	-2.871159	0.828063107538
99.568408	-2.852865	0.613212631208
99.555195	-2.834572	0.406880981916
99.541983	-2.816278	0.254216654513
99.528771	-2.797984	0.189348150596
99.51556	-2.77969	0.192126483747
99.502349	-2.761395	0.221934075114
99.489139	-2.743101	0.25779972661
99.475928	-2.724806	0.301716318291
99.462719	-2.706511	0.374879024738
100.30064	-3.827267	0.971182093587
100.287401	-3.808984	0.956983500886
100.274161	-3.790701	0.94261279921
100.260923	-3.772417	0.943797896413
100.247685	-3.754134	0.987004351812
100.234447	-3.73585	1.10825599826
100.221211	-3.717566	1.32122616859
100.207974	-3.699281	1.59660804896
100.194739	-3.680997	1.88837855194
100.181503	-3.662712	2.15097519037
100.168269	-3.644427	2.33188195956
100.155035	-3.626142	2.38217320972
100.141801	-3.607856	2.29570919002
100.128568	-3.589571	2.11300747877
100.115336	-3.571285	1.88478715999
100.102104	-3.552999	1.65482992922
100.088872	-3.534713	1.46675389235
100.075641	-3.516426	1.35163218229
100.062411	-3.49814	1.30411423239
100.049181	-3.479853	1.29583491653
100.035952	-3.461566	1.30826866919
100.022723	-3.443278	1.34464157536
100.009495	-3.424991	1.41995055774
99.996267	-3.406703	1.53845108891
99.98304	-3.388416	1.68278844926
99.969813	-3.370127	1.82906131252
99.956587	-3.351839	1.96139819201
99.943361	-3.333551	2.07251626327
99.930136	-3.315262	2.15829313669
99.916911	-3.296973	2.21355849603
99.903687	-3.278684	2.23244013648
99.890463	-3.260395	2.21307104402
99.87724	-3.242106	2.15972656031
99.864017	-3.223816	2.08236821394
99.850794	-3.205526	1.99104471421
99.837573	-3.187237	1.88699965259
99.824351	-3.168946	1.76448579532
99.81113	-3.150656	1.62780006989
99.79791	-3.132366	1.50576995843
99.78469	-3.114075	1.45024157645
99.771471	-3.095784	1.49715111114
99.758252	-3.077493	1.6259366281
99.745033	-3.059202	1.78207298792
99.731815	-3.04091	1.91897218583
99.718597	-3.022619	2.00472696051
99.70538	-3.004327	2.02016217936
99.692164	-2.986035	1.96510485169
99.678947	-2.967743	1.85284321135
99.665731	-2.949451	1.69882259611
99.652516	-2.931158	1.51648581087
99.639301	-2.912866	1.32042145371
99.626087	-2.894573	1.12387520063
99.612873	-2.87628	0.930768904954
99.599659	-2.857987	0.738529331516
99.586446	-2.839694	0.549810368443
99.573233	-2.8214	0.380374201773
99.560021	-2.803107	0.2564078654
99.546809	-2.784813	0.195894567376
99.533597	-2.766519	0.191103948369
99.520386	-2.748225	0.219582885199
99.507175	-2.72993	0.265145937534
99.493965	-2.711636	0.322571275563
99.480755	-2.693341	0.392885864484
100.318686	-3.814082	0.757772571223
100.305446	-3.795799	0.79665533412
100.292207	-3.777516	0.837272071838
100.278968	-3.759233	0.883026969535
100.26573	-3.74095	0.956576273527
100.252492	-3.722666	1.09010700112
100.239255	-3.704382	1.29250360196
100.226019	-3.686098	1.53282155153
100.212783	-3.667814	1.77037869822
100.199547	-3.649529	1.96955055681
100.186313	-3.631244	2.0975236234
100.173078	-3.61296	2.12930216033
100.159845	-3.594674	2.0604251098
100.146611	-3.576389	1.9087038521
100.133379	-3.558103	1.70251009663
100.120147	-3.539818	1.47794809031
100.106915	-3.521532	1.2873201683
100.093684	-3.503246	1.17477910316
100.080454	-3.484959	1.1271806295
100.067224	-3.466673	1.10458386837
100.053994	-3.448386	1.09007060939
100.040765	-3.430099	1.09213087662
100.027537	-3.411812	1.13590001235
100.014309	-3.393524	1.23279090428
100.001081	-3.375237	1.35603792398
99.987855	-3.356949	1.4706107019
99.974628	-3.338661	1.55916073933
99.961402	-3.320373	1.62512253012
99.948177	-3.302084	1.68817112728
99.934952	-3.283796	1.74676435902
99.921728	-3.265507	1.76865923718
99.908504	-3.247218	1.73556103355
99.89528	-3.228929	1.65392138095
99.882057	-3.210639	1.55788278533
99.868835	-3.19235	1.49096656015
99.855613	-3.17406	1.44841641802
99.842391	-3.15577	1.39081775522
99.82917	-3.13748	1.30636733133
99.81595	-3.11919	1.21818540919
99.80273	-3.1009	1.17779009491
99.78951	-3.082609	1.2235148229
99.776291	-3.064318	1.32332164509
99.763072	-3.046027	1.42307232944
99.749854	-3.027736	1.49067835418
99.736636	-3.009445	1.51811053673
99.723419	-2.991153	1.52419649713
99.710202	-2.972861	1.52210756721
99.696986	-2.95457	1.49104560974
99.68377	-2.936277	1.41865852726
99.670554	-2.917985	1.31100106345
99.657339	-2.899693	1.17453773298
99.644124	-2.8814	1.01234268422
99.63091	-2.863108	0.834894755594
99.617696	-2.844815	0.654881031287
99.604483	-2.826522	0.480205723162
99.59127	-2.808228	0.323028858728
99.578058	-2.789935	0.208520614849
99.564846	-2.771641	0.161617003423
99.551634	-2.753348	0.172264781953
99.538423	-2.735054	0.213489329822
99.525212	-2.71676	0.27164335679
99.512001	-2.698466	0.338388288641
99.498791	-2.680171	0.401678639318
100.33673	-3.800897	0.544723297868
100.323491	-3.782614	0.648201351763
100.310251	-3.764332	0.737745194065
100.297012	-3.746049	0.808968651128
100.283774	-3.727765	0.88222558528
100.270536	-3.709482	1.01658155024
100.257299	-3.691198	1.23727622602
100.244063	-3.672915	1.47391185103
100.230826	-3.65463	1.68521418701
100.217591	-3.636346	1.85014372321
100.204356	-3.618062	1.95017981427
100.191122	-3.599777	1.96763754605
100.177888	-3.581492	1.89675802229
100.164654	-3.563207	1.74949830683
100.151422	-3.544922	1.5380916917
100.138189	-3.526636	1.28075624256
100.124958	-3.50835	1.0477304005
100.111727	-3.490065	0.958847922885
100.098496	-3.471778	0.945641527529
100.085266	-3.453492	0.921132536416
100.072036	-3.435205	0.875040664943
100.058807	-3.416919	0.820999623783
100.045578	-3.398632	0.82016401307
100.03235	-3.380345	0.923771913915
100.019123	-3.362057	1.05395216599
100.005896	-3.34377	1.15116445973
99.992669	-3.325482	1.19870344175
99.979443	-3.307194	1.20379400607
99.966218	-3.288906	1.24615703142
99.952993	-3.270618	1.33715472564
99.939768	-3.252329	1.37098188221
99.926544	-3.23404	1.32156300274
99.91332	-3.215751	1.1908059181
99.900097	-3.197462	1.03592452614
99.886875	-3.179173	1.00435825815
99.873653	-3.160884	1.0588679023
99.860431	-3.142594	1.068896213
99.84721	-3.124304	1.01801708756
99.833989	-3.106014	0.922902319854
99.820769	-3.087724	0.855803414425
99.807549	-3.069433	0.933105089245
99.79433	-3.051143	1.04056694765
99.781111	-3.032852	1.10848027466
99.767893	-3.014561	1.11954549221
99.754675	-2.99627	1.07582006517
99.741457	-2.977979	1.05802247023
99.72824	-2.959687	1.12707370583
99.715024	-2.941396	1.17417041758
99.701808	-2.923104	1.16913257014
99.688592	-2.904812	1.1254906081
99.675377	-2.88652	1.04581257245
99.662162	-2.868227	0.90861147751
99.648947	-2.849935	0.740388166824
99.635734	-2.831642	0.571297936555
99.62252	-2.813349	0.404966602852
99.609307	-2.795056	0.243093934987
99.596094	-2.776763	0.114321316405
99.582882	-2.75847	0.0941071980963
99.56967	-2.740176	0.139594649598
99.556459	-2.721883	0.19955327096
99.543248	-2.703589	0.271574471725
99.530037	-2.685295	0.353804924513
99.516827	-2.667001	0.411194716252
100.354775	-3.787711	0.367651596265
100.341535	-3.769429	0.539622347062
100.328295	-3.751146	0.667572224305
100.315056	-3.732864	0.757147463537
100.301818	-3.714581	0.814388971439
100.28858	-3.696298	0.929001539623
100.275343	-3.678014	1.20119218756
100.262106	-3.659731	1.4429730538
100.24887	-3.641447	1.64050350644
100.235634	-3.623163	1.78654966425
100.222399	-3.604879	1.87180193987
100.209164	-3.586594	1.88002944588
100.19593	-3.56831	1.79874958816
100.182697	-3.550025	1.64744264704
100.169464	-3.53174	1.42763537986
100.156232	-3.513454	1.13866832114
100.143	-3.495169	0.799554097655
100.129768	-3.476883	0.789208599463
100.116538	-3.458597	0.80607564049
100.103307	-3.440311	0.773855682243
100.090078	-3.422025	0.697491945019
100.076848	-3.403738	0.57732739623
100.06362	-3.385452	0.481936557241
100.050391	-3.367165	0.657376137865
100.037164	-3.348878	0.805358119296
100.023937	-3.33059	0.894208330892
100.01071	-3.312303	0.919216321665
99.997484	-3.294015	0.875692280415
99.984258	-3.275727	0.89983811517
99.971033	-3.257439	1.02757058297
99.957808	-3.239151	1.0676768235
99.944584	-3.220862	1.00941843784
99.93136	-3.202574	0.842209397966
99.918137	-3.184285	0.568923812374
99.904914	-3.165996	0.612099127645
99.891692	-3.147707	0.771960679368
99.87847	-3.129417	0.829526409942
99.865249	-3.111128	0.802718253057
99.852028	-3.092838	0.709116135753
99.838808	-3.074548	0.602684560346
99.825588	-3.056258	0.71515764402
99.812368	-3.037967	0.818358225077
99.799149	-3.019677	0.862504999622
99.785931	-3.001386	0.83839437609
99.772713	-2.983095	0.734184157269
99.759495	-2.964804	0.660267058127
99.746278	-2.946513	0.824325601212
99.733061	-2.928221	0.918666486344
99.719845	-2.90993	0.95226235335
99.706629	-2.891638	0.949439265621
99.693414	-2.873346	0.926257291316
99.680199	-2.855054	0.796457992808
99.666984	-2.836762	0.639781742434
99.65377	-2.818469	0.487675610808
99.640557	-2.800177	0.33675768357
99.627343	-2.781884	0.180995233269
99.61413	-2.763591	0.0273122658378
99.600918	-2.745298	0.0451939449594
99.587706	-2.727005	0.112260387788
99.574495	-2.708711	0.178864907361
99.561283	-2.690418	0.252944747176
99.548073	-2.672124	0.341101701766
99.534862	-2.65383	0.393141426291
100.372819	-3.774525	0.335934904432
100.359579	-3.756243	0.49940929783
100.346339	-3.737961	0.643795726039
100.3331	-3.719678	0.759706875937
100.319861	-3.701396	0.858205358343
100.306623	-3.683113	1.00696429682
100.293386	-3.66483	1.23407125303
100.280149	-3.646546	1.45599666084
100.266912	-3.628263	1.63949628665
100.253677	-3.609979	1.77355929737
100.240441	-3.591695	1.84659297069
100.227207	-3.573411	1.84391508209
100.213973	-3.555127	1.76061410401
100.200739	-3.536842	1.60702342579
100.187506	-3.518557	1.39276280017
100.174273	-3.500272	1.13185013426
100.161041	-3.481987	0.889991517799
100.14781	-3.463702	0.785183218902
100.134579	-3.445416	0.742171051476
100.121349	-3.42713	0.681374397208
100.108119	-3.408844	0.590563227588
100.094889	-3.390558	0.476269005728
100.08166	-3.372271	0.418539708755
100.068432	-3.353985	0.516067751315
100.055204	-3.335698	0.633496782681
100.041977	-3.317411	0.710782286033
100.02875	-3.299123	0.742267676304
100.015524	-3.280836	0.742654204007
100.002298	-3.262548	0.776968418113
99.989072	-3.24426	0.844848810872
99.975848	-3.225972	0.870607545327
99.962623	-3.207684	0.822239255847
99.949399	-3.189396	0.693763131318
99.936176	-3.171107	0.537384363567
99.922953	-3.152818	0.542213014228
99.909731	-3.134529	0.640921209904
99.896509	-3.11624	0.690187699118
99.883287	-3.097951	0.67710746663
99.870066	-3.079661	0.623073661325
99.856846	-3.061371	0.586541681517
99.843626	-3.043081	0.620858602217
99.830406	-3.024791	0.673563498382
99.817187	-3.006501	0.694308452022
99.803968	-2.988211	0.668285220151
99.79075	-2.96992	0.60369743294
99.777532	-2.951629	0.586187171196
99.764315	-2.933338	0.661074192345
99.751098	-2.915047	0.732936171623
99.737882	-2.896756	0.766539361647
99.724666	-2.878464	0.768049249942
99.71145	-2.860172	0.735026172631
99.698235	-2.84188	0.646592509088
99.685021	-2.823588	0.527267533508
99.671806	-2.805296	0.404006394937
99.658593	-2.787004	0.281990347299
99.645379	-2.768711	0.164004107451
99.632166	-2.750419	0.0754608269292
99.618954	-2.732126	0.0635157194179
99.605742	-2.713833	0.101670466796
99.59253	-2.695539	0.152960867839
99.579319	-2.677246	0.210644745646
99.566108	-2.658952	0.268167532239
99.552897	-2.640659	0.297699564361
100.390862	-3.761339	0.360569771691
100.377622	-3.743057	0.506268341374
100.364382	-3.724775	0.657281656869
100.351143	-3.706493	0.801926242239
100.337904	-3.688211	0.947555974741
100.324666	-3.669928	1.11610386061
100.311428	-3.651645	1.31099435867
100.298191	-3.633362	1.50618281827
100.284955	-3.615079	1.67803722837
100.271719	-3.596795	1.80899657662
100.258483	-3.578511	1.87976803834
100.245249	-3.560228	1.87214330697
100.232014	-3.541943	1.78134797962
100.218781	-3.523659	1.62072822756
100.205547	-3.505374	1.41266168388
100.192315	-3.48709	1.18496508918
100.179082	-3.468805	0.980175266707
100.165851	-3.45052	0.832449610222
100.15262	-3.432234	0.72608423778
100.139389	-3.413949	0.630475110096
100.126159	-3.395663	0.534625828854
100.11293	-3.377377	0.450534894613
100.099701	-3.35909	0.416848839543
100.086472	-3.340804	0.452980703519
100.073244	-3.322517	0.52114710352
100.060017	-3.304231	0.583916945374
100.04679	-3.285944	0.628972505355
100.033563	-3.267656	0.662899666208
100.020337	-3.249369	0.701635626446
100.007112	-3.231081	0.740964888365
99.993887	-3.212794	0.756775842088
99.980662	-3.194506	0.732463121221
99.967438	-3.176217	0.670747973871
99.954215	-3.157929	0.608254570187
99.940992	-3.13964	0.595591482666
99.927769	-3.121352	0.617896762994
99.914547	-3.103063	0.629085442428
99.901325	-3.084774	0.613654380715
99.888104	-3.066484	0.58293564584
99.874884	-3.048195	0.562035594579
99.861663	-3.029905	0.565671579155
99.848444	-3.011615	0.580005865516
99.835224	-2.993325	0.584334232292
99.822006	-2.975035	0.569946762486
99.808787	-2.956744	0.546597305622
99.795569	-2.938454	0.543080388925
99.782352	-2.920163	0.568382418936
99.769135	-2.901872	0.597083585183
99.755918	-2.883581	0.608859444911
99.742702	-2.86529	0.598331668732
99.729487	-2.846998	0.561412046561
99.716271	-2.828707	0.495439641352
99.703056	-2.810415	0.410078764557
99.689842	-2.792123	0.319111671837
99.676628	-2.773831	0.231081716274
99.663415	-2.755538	0.153162487104
99.650202	-2.737246	0.0987715775699
99.636989	-2.718953	0.0802082934539
99.623777	-2.70066	0.0921098382597
99.610565	-2.682367	0.121032898488
99.597353	-2.664074	0.157309383308
99.584142	-2.645781	0.189949231581
99.570932	-2.627487	0.204879083472
100.408905	-3.748152	0.372145360716
100.395664	-3.729871	0.521709442302
100.382424	-3.711589	0.684471016124
100.369185	-3.693307	0.854590662215
100.355946	-3.675025	1.03025705621
100.342708	-3.656743	1.21071767943
100.32947	-3.63846	1.39330167006
100.316233	-3.620177	1.57360762845
100.302996	-3.601894	1.74453037803
100.28976	-3.583611	1.88957690708
100.276525	-3.565327	1.97754449955
100.26329	-3.547044	1.97162981582
100.250055	-3.52876	1.86050737994
100.236822	-3.510476	1.67365617637
100.223588	-3.492191	1.45379635335
100.210355	-3.473907	1.23261465681
100.197123	-3.455622	1.03112765723
100.183891	-3.437337	0.859203093546
100.17066	-3.419052	0.714470745324
100.157429	-3.400767	0.590718198208
100.144199	-3.382481	0.486580098863
100.13097	-3.364195	0.410112890765
100.11774	-3.345909	0.375564297889
100.104512	-3.327623	0.386813881777
100.091284	-3.309337	0.429302145694
100.078056	-3.29105	0.484497603384
100.064829	-3.272763	0.541055057232
100.051602	-3.254477	0.59370396931
100.038376	-3.236189	0.638475895458
100.02515	-3.217902	0.670988652372
100.011925	-3.199614	0.688840079907
99.998701	-3.181327	0.691727852226
99.985477	-3.163039	0.682024417347
99.972253	-3.144751	0.666335449029
99.95903	-3.126462	0.650045073071
99.945807	-3.108174	0.630975671159
99.932585	-3.089885	0.606276841435
99.919363	-3.071596	0.577397000558
99.906142	-3.053307	0.549127038298
99.892921	-3.035018	0.526994842811
99.879701	-3.016728	0.513562840457
99.866481	-2.998439	0.506869586628
99.853261	-2.980149	0.502710738249
99.840042	-2.961859	0.49819825793
99.826824	-2.943569	0.493859534877
99.813606	-2.925278	0.491643973089
99.800388	-2.906988	0.489901192978
99.787171	-2.888697	0.484422744771
99.773954	-2.870406	0.47152432965
99.760738	-2.852115	0.44795146973
99.747522	-2.833824	0.410153833638
99.734307	-2.815532	0.357145559846
99.721092	-2.797241	0.294303571107
99.707877	-2.778949	0.230598448517
99.694663	-2.760657	0.173549134626
99.68145	-2.742365	0.127332921775
99.668236	-2.724073	0.0934950022645
99.655024	-2.70578	0.0732342516791
99.641811	-2.687488	0.0688862223637
99.628599	-2.669195	0.0801469965528
99.615388	-2.650902	0.101262278417
99.602176	-2.632609	0.120930699182
99.588966	-2.614315	0.125621849594
100.426947	-3.734965	0.366407337632
100.413707	-3.716684	0.52775033377
100.400467	-3.698403	0.706720714122
100.387227	-3.680121	0.903012380932
100.373988	-3.661839	1.10739828752
100.36075	-3.643557	1.29923814756
100.347512	-3.625275	1.4695971126
100.334274	-3.606992	1.63723126082
100.321038	-3.588709	1.81833271508
100.307801	-3.570426	2.00461585368
100.294566	-3.552143	2.14795544758
100.281331	-3.53386	2.15735032786
100.268096	-3.515576	1.99512480886
100.254862	-3.497292	1.74417946931
100.241629	-3.479008	1.48868890585
100.228396	-3.460724	1.25827545114
100.215163	-3.442439	1.05226974153
100.201931	-3.424155	0.860786656975
100.1887	-3.40587	0.686025752938
100.175469	-3.387585	0.537685478428
100.162239	-3.369299	0.420107104652
100.149009	-3.351014	0.337648116783
100.13578	-3.332728	0.29683798809
100.122551	-3.314442	0.298105395691
100.109323	-3.296156	0.332205114897
100.096095	-3.27787	0.389028174676
100.082868	-3.259583	0.46074543391
100.069641	-3.241296	0.534504529066
100.056415	-3.223009	0.588128324355
100.043189	-3.204722	0.614846289645
100.029963	-3.186435	0.635209144543
100.016739	-3.168147	0.664415878016
100.003514	-3.14986	0.701617006096
99.990291	-3.131572	0.726531896034
99.977067	-3.113284	0.708816095222
99.963844	-3.094995	0.65177143487
99.950622	-3.076707	0.59038369679
99.9374	-3.058418	0.544290507001
99.924179	-3.040129	0.513249657236
99.910958	-3.02184	0.48673958811
99.897737	-3.003551	0.458189248422
99.884517	-2.985262	0.435248080557
99.871298	-2.966972	0.426093040004
99.858079	-2.948682	0.431331048752
99.84486	-2.930392	0.443059518405
99.831642	-2.912102	0.442150000322
99.818424	-2.893812	0.41631271244
99.805207	-2.875521	0.37895284367
99.79199	-2.857231	0.343210579007
99.778774	-2.83894	0.309370367226
99.765558	-2.820649	0.27194685267
99.752342	-2.802358	0.226488907689
99.739127	-2.784066	0.177147532088
99.725912	-2.765775	0.133726614063
99.712698	-2.747483	0.103663322056
99.699484	-2.729191	0.0875704613313
99.686271	-2.710899	0.0726246258123
99.673058	-2.692607	0.0471410865129
99.659845	-2.674315	0.026807562471
99.646633	-2.656022	0.0255962693838
99.633422	-2.637729	0.0412704249712
