99.904113	-4.102836	5.1232007978
99.88823	-4.08089	4.35510458025
99.872348	-4.058943	3.59395536511
99.856467	-4.036996	2.77437665172
99.840586	-4.015048	2.39139402766
99.824707	-3.993101	2.46903201333
99.808828	-3.971153	2.36307435239
99.792949	-3.949205	2.00049476319
99.777072	-3.927256	1.41709051473
99.761195	-3.905307	1.44806435498
99.74532	-3.883358	2.16554863962
99.729445	-3.861409	2.68482132375
99.71357	-3.839459	2.99793752599
99.697697	-3.817509	3.19279289669
99.681824	-3.795559	3.43719686319
99.665952	-3.773608	3.61584140967
99.650081	-3.751658	3.66666771526
99.634211	-3.729707	3.55286177331
99.618341	-3.707755	3.60360641347
99.602472	-3.685804	5.31966590442
99.586604	-3.663852	7.43632316835
99.570736	-3.6419	9.67198881563
99.55487	-3.619948	12.2059876318
99.539003	-3.597995	13.9843917059
99.523138	-3.576042	14.78756169
99.507274	-3.554089	16.2193794214
99.49141	-3.532136	18.4727553943
99.475546	-3.510182	21.2343715832
99.459684	-3.488228	21.1905361808
99.443822	-3.466274	19.3271894713
99.427961	-3.44432	18.291372669
99.412101	-3.422365	18.152941289
99.396241	-3.40041	18.61733303
99.380382	-3.378455	17.236549392
99.364523	-3.3565	14.6995394421
99.348666	-3.334544	12.6282261459
99.332809	-3.312588	10.888964759
99.316952	-3.290632	9.50132421013
99.301096	-3.268676	8.80535286652
99.285241	-3.24672	8.20060067585
99.269387	-3.224763	7.53834069494
99.253533	-3.202806	6.83404626153
99.23768	-3.180849	6.6379624682
99.221827	-3.158891	6.84988031746
99.205975	-3.136934	7.02494700036
99.190124	-3.114976	7.19210165045
99.174273	-3.093018	7.37996441385
99.158423	-3.071059	7.20617709654
99.142574	-3.049101	6.77027866574
99.126725	-3.027142	6.38976378261
99.110876	-3.005183	6.06738741398
99.925781	-4.087023	4.90812527167
99.909898	-4.065077	4.1696780095
99.894016	-4.043131	3.41710815289
99.878134	-4.021184	2.55121470661
99.862253	-3.999237	2.16980196
99.846373	-3.97729	2.30753331143
99.830494	-3.955342	2.20412952412
99.814616	-3.933394	1.82457074919
99.798738	-3.911446	1.20215190577
99.782861	-3.889497	1.20845502282
99.766985	-3.867549	1.90153761659
99.75111	-3.8456	2.38730402929
99.735235	-3.82365	2.66204409133
99.719362	-3.801701	2.81758420791
99.703489	-3.779751	3.0254478068
99.687617	-3.757801	3.16772319869
99.671745	-3.73585	3.18571893192
99.655874	-3.7139	3.06409681063
99.640004	-3.691949	3.1773233375
99.624135	-3.669998	4.7187277309
99.608267	-3.648046	6.71525187929
99.592399	-3.626094	8.83923427873
99.576532	-3.604142	11.194023559
99.560666	-3.58219	12.8751355766
99.5448	-3.560238	13.7907459979
99.528935	-3.538285	15.2512114211
99.513071	-3.516332	17.5672000764
99.497208	-3.494379	20.6553213047
99.481345	-3.472425	20.4753178221
99.465483	-3.450471	18.4282122476
99.449621	-3.428517	17.3784490913
99.433761	-3.406563	17.268179764
99.417901	-3.384609	17.7830193438
99.402041	-3.362654	16.4770427367
99.386183	-3.340699	14.0505292947
99.370325	-3.318744	12.0771944429
99.354467	-3.296788	10.4230704084
99.338611	-3.274832	9.11029428803
99.322755	-3.252876	8.43436989281
99.306899	-3.23092	7.84865638547
99.291045	-3.208964	7.2016487894
99.275191	-3.187007	6.52110959611
99.259337	-3.16505	6.32189227816
99.243484	-3.143093	6.509001762
99.227632	-3.121136	6.66839415721
99.21178	-3.099178	6.80750542646
99.195929	-3.077221	6.92182026668
99.180079	-3.055263	6.71732119034
99.164229	-3.033305	6.26668865844
99.14838	-3.011346	5.84030516581
99.132532	-2.989388	5.47568083021
99.116684	-2.967429	5.17807975455
99.947449	-4.07121	4.45099147999
99.931565	-4.049264	3.9782853329
99.915683	-4.027318	3.46186733552
99.899801	-4.005372	2.95455634927
99.88392	-3.983425	2.653006142
99.868039	-3.961478	2.53413116134
99.85216	-3.939531	2.36452324629
99.836281	-3.917583	2.07809151182
99.820403	-3.895635	1.78304379326
99.804526	-3.873687	1.77375552139
99.78865	-3.851739	2.04659817263
99.772774	-3.82979	2.32701751791
99.7569	-3.807841	2.51911099472
99.741026	-3.785892	2.65592971979
99.725153	-3.763943	2.78431210402
99.70928	-3.741993	2.88659753965
99.693408	-3.720043	2.94936119399
99.677537	-3.698092	3.04722289305
99.661667	-3.676142	3.47224039978
99.645798	-3.654191	4.51301727665
99.629929	-3.63224	5.97036810992
99.614061	-3.610289	7.60239064908
99.598194	-3.588337	9.26778401944
99.582327	-3.566385	10.6913607059
99.566461	-3.544433	11.9083322315
99.550596	-3.52248	13.2930453806
99.534732	-3.500528	14.9785758724
99.518868	-3.478575	16.5047221664
99.503005	-3.456622	16.7421697268
99.487143	-3.434668	16.012576487
99.471281	-3.412714	15.3915461718
99.45542	-3.390761	15.1347831353
99.43956	-3.368806	14.914879252
99.4237	-3.346852	14.041213714
99.407841	-3.324897	12.6256068362
99.391983	-3.302942	11.2115017735
99.376126	-3.280987	9.96343617167
99.360269	-3.259032	8.95454777762
99.344412	-3.237076	8.21525439932
99.328557	-3.21512	7.60479077609
99.312702	-3.193164	7.03262124268
99.296847	-3.171208	6.55064571989
99.280994	-3.149252	6.31262906689
99.265141	-3.127295	6.29326682608
99.249288	-3.105338	6.3394018272
99.233436	-3.083381	6.37263691671
99.217585	-3.061423	6.32083684669
99.201734	-3.039466	6.0807129097
99.185884	-3.017508	5.67279309814
99.170035	-2.99555	5.21520286037
99.154186	-2.973591	4.79293963839
99.138338	-2.951633	4.45378717252
99.969115	-4.055396	4.01659305726
99.953231	-4.03345	3.80749564113
99.937349	-4.011505	3.57582764417
99.921466	-3.989559	3.34472178648
99.905585	-3.967612	3.12950514605
99.889705	-3.945666	2.9187252975
99.873825	-3.923719	2.69682922592
99.857946	-3.901772	2.47767570266
99.842068	-3.879824	2.31281233827
99.826191	-3.857877	2.26194021429
99.810314	-3.835929	2.31232070004
99.794438	-3.81398	2.39533114058
99.778563	-3.792032	2.46938308894
99.762689	-3.770083	2.53913436627
99.746816	-3.748134	2.61913554414
99.730943	-3.726184	2.70237729094
99.715071	-3.704235	2.7917455298
99.6992	-3.682285	2.96106068157
99.683329	-3.660334	3.37021425901
99.667459	-3.638384	4.12939876874
99.651591	-3.616433	5.14653493535
99.635722	-3.594482	6.25826670288
99.619855	-3.572531	7.38236161604
99.603988	-3.550579	8.52151581474
99.588122	-3.528627	9.69709665726
99.572256	-3.506675	10.8711545848
99.556392	-3.484723	11.9524733638
99.540528	-3.46277	12.7572110984
99.524665	-3.440818	13.0995321116
99.508802	-3.418864	13.0650045995
99.49294	-3.396911	12.8650796008
99.477079	-3.374958	12.59700451
99.461218	-3.353004	12.2311191036
99.445359	-3.33105	11.6918839061
99.429499	-3.309095	10.9749367775
99.413641	-3.287141	10.1627386901
99.397783	-3.265186	9.35108434654
99.381926	-3.243231	8.60760070616
99.366069	-3.221276	7.9544310203
99.350214	-3.19932	7.37493683363
99.334358	-3.177364	6.86075136978
99.318504	-3.155408	6.44797163444
99.30265	-3.133452	6.18882408061
99.286796	-3.111496	6.07277317442
99.270944	-3.089539	6.02985431177
99.255092	-3.067582	5.98601863605
99.23924	-3.045625	5.85705487317
99.223389	-3.023668	5.55879386689
99.207539	-3.00171	5.09088925205
99.191689	-2.979752	4.54146862899
99.17584	-2.957795	4.01567404578
99.159992	-2.935836	3.63008494172
99.990781	-4.039581	3.62592772226
99.974897	-4.017636	3.64689122883
99.959014	-3.995691	3.69065854067
99.943131	-3.973745	3.72391371396
99.92725	-3.951799	3.61099530997
99.911369	-3.929853	3.32961632391
99.895489	-3.907907	3.05043855905
99.87961	-3.88596	2.86174105523
99.863732	-3.864013	2.76088804537
99.847854	-3.842065	2.67696301464
99.831977	-3.820118	2.57525574272
99.816101	-3.79817	2.49749646475
99.800226	-3.776222	2.44696147869
99.784351	-3.754273	2.43433733653
99.768478	-3.732324	2.48765157289
99.752605	-3.710375	2.56806176017
99.736733	-3.688426	2.63663943703
99.720861	-3.666476	2.72867350656
99.70499	-3.644526	2.98940034261
99.68912	-3.622576	3.57227124796
99.673251	-3.600626	4.30691719043
99.657383	-3.578675	4.95682391979
99.641515	-3.556724	5.51939776066
99.625648	-3.534773	6.33841469333
99.609782	-3.512822	7.49324893763
99.593916	-3.49087	8.49247624262
99.578051	-3.468918	9.09227042027
99.562187	-3.446966	9.38486379975
99.546323	-3.425013	9.75353663649
99.530461	-3.40306	10.1977151379
99.514598	-3.381107	10.3385788693
99.498737	-3.359154	10.0876135507
99.482876	-3.337201	9.67364008654
99.467016	-3.315247	9.49843328058
99.451157	-3.293293	9.38988305957
99.435298	-3.271339	9.09824001417
99.41944	-3.249384	8.67204555127
99.403582	-3.227429	8.17647610744
99.387726	-3.205474	7.63795854703
99.37187	-3.183519	7.10660242737
99.356014	-3.161564	6.62185104936
99.340159	-3.139608	6.21716932279
99.324305	-3.117652	5.94371735909
99.308451	-3.095696	5.79893153083
99.292598	-3.07374	5.72179612855
99.276746	-3.051783	5.665304075
99.260894	-3.029827	5.54549104505
99.245043	-3.00787	5.18681781478
99.229193	-2.985912	4.56997241839
99.213343	-2.963955	3.85017435618
99.197493	-2.941997	3.12219152379
99.181645	-2.920039	2.61523832671
100.012446	-4.023766	3.23305050697
99.996562	-4.001821	3.45582588572
99.980678	-3.979876	3.75179987613
99.964796	-3.957931	4.14351457011
99.948914	-3.935986	4.1598268128
99.933033	-3.91404	3.66463356263
99.917153	-3.892094	3.30266482073
99.901273	-3.870147	3.13971310181
99.885395	-3.848201	3.14809726972
99.869517	-3.826254	3.06392202357
99.85364	-3.804306	2.78779365581
99.837763	-3.782359	2.5856178557
99.821888	-3.760411	2.42691017876
99.806013	-3.738463	2.30636910068
99.790139	-3.716514	2.38849414553
99.774266	-3.694566	2.49720047362
99.758394	-3.672617	2.53183460749
99.742522	-3.650667	2.47088994984
99.726651	-3.628718	2.42617553827
99.710781	-3.606768	3.02560522907
99.694911	-3.584818	3.6506337761
99.679043	-3.562868	3.92389516734
99.663175	-3.540917	3.74451924854
99.647307	-3.518966	4.14526757518
99.631441	-3.497015	5.66175070499
99.615575	-3.475064	6.57683371116
99.59971	-3.453112	6.7108108173
99.583845	-3.43116	6.19529853672
99.567981	-3.409208	6.62016189334
99.552118	-3.387256	7.78899599536
99.536256	-3.365303	8.25422629764
99.520394	-3.34335	7.96221271531
99.504533	-3.321397	7.16069191039
99.488673	-3.299443	7.57789204435
99.472813	-3.27749	8.07008616264
99.456954	-3.255536	8.16128425126
99.441096	-3.233582	8.03151490089
99.425238	-3.211627	7.7636629056
99.409381	-3.189673	7.29328069154
99.393525	-3.167718	6.79931672056
99.377669	-3.145763	6.33054517411
99.361814	-3.123808	5.89101793406
99.34596	-3.101852	5.60637382703
99.330106	-3.079896	5.47813250431
99.314252	-3.05794	5.38586925583
99.2984	-3.035984	5.34483480292
99.282548	-3.014027	5.35683705083
99.266697	-2.992071	4.94295173123
99.250846	-2.970114	4.09350178038
99.234996	-2.948157	3.2123757476
99.219146	-2.926199	2.22205707868
99.203297	-2.904242	1.3395811921
100.03411	-4.007951	2.88162805826
100.018226	-3.986006	3.19421203559
100.002342	-3.964062	3.5944536808
99.986459	-3.942117	4.14427532633
99.970577	-3.920172	4.2524423999
99.954696	-3.898226	3.69553886245
99.938815	-3.87628	3.34055192651
99.922936	-3.854334	3.19810937005
99.907057	-3.832388	3.23482648308
99.891179	-3.810441	3.15738888188
99.875301	-3.788494	2.85687802769
99.859425	-3.766547	2.63792009218
99.843549	-3.7446	2.4651684493
99.827674	-3.722652	2.32719836715
99.8118	-3.700704	2.41993514986
99.795927	-3.678756	2.53653852143
99.780054	-3.656807	2.57307764563
99.764182	-3.634858	2.50286673881
99.748311	-3.612909	2.43214882403
99.73244	-3.590959	2.92137246521
99.716571	-3.56901	3.41294672841
99.700702	-3.54706	3.5487413461
99.684833	-3.525109	3.26846524045
99.668966	-3.503159	3.55277792009
99.653099	-3.481208	4.79201021533
99.637233	-3.459257	5.50078649945
99.621367	-3.437306	5.42213006789
99.605503	-3.415354	4.56262251304
99.589639	-3.393402	5.00567486651
99.573775	-3.37145	6.38855973796
99.557913	-3.349498	6.97883672379
99.542051	-3.327545	6.84586365896
99.52619	-3.305593	6.37122545723
99.510329	-3.28364	6.72300540871
99.494469	-3.261686	7.23876516208
99.47861	-3.239733	7.43790704456
99.462751	-3.217779	7.42973702595
99.446893	-3.195825	7.27418224643
99.431036	-3.173871	6.89135214356
99.415179	-3.151916	6.46468418292
99.399323	-3.129961	6.04060540732
99.383468	-3.108006	5.61756617733
99.367613	-3.086051	5.31925066171
99.351759	-3.064096	5.14697832618
99.335906	-3.04214	4.99234024373
99.320053	-3.020184	4.88056229474
99.304201	-2.998228	4.80875121997
99.288349	-2.976272	4.37237775923
99.272498	-2.954315	3.56815633938
99.256648	-2.932358	2.73004893109
99.240798	-2.910401	1.82040980099
99.224949	-2.888444	1.10340373655
100.055773	-3.992134	2.586143729
100.039889	-3.970191	2.85257344467
100.024005	-3.948246	3.18317039402
100.008122	-3.926302	3.50442041182
99.992239	-3.904357	3.57150303188
99.976358	-3.882412	3.36342731122
99.960477	-3.860467	3.14684042292
99.944597	-3.838521	3.02629524346
99.928718	-3.816575	2.98112563226
99.91284	-3.794629	2.90419436082
99.896962	-3.772682	2.76804763787
99.881086	-3.750735	2.64591584746
99.86521	-3.728788	2.55905075943
99.849334	-3.706841	2.52806811696
99.83346	-3.684893	2.58618843913
99.817586	-3.662945	2.6827611994
99.801713	-3.640997	2.76235771573
99.785841	-3.619048	2.82172233972
99.76997	-3.597099	2.95167201354
99.754099	-3.57515	3.25646071784
99.738229	-3.553201	3.59405886555
99.72236	-3.531251	3.79758121585
99.706491	-3.509301	3.90917151736
99.690624	-3.487351	4.25639472138
99.674757	-3.465401	4.85866235133
99.65889	-3.44345	5.28217502004
99.643025	-3.421499	5.3123124481
99.62716	-3.399548	5.14298657367
99.611295	-3.377596	5.42898697574
99.595432	-3.355645	6.08112341656
99.579569	-3.333693	6.50360803382
99.563707	-3.31174	6.5764876123
99.547845	-3.289788	6.52633156589
99.531984	-3.267835	6.65069743043
99.516124	-3.245882	6.84584369053
99.500265	-3.223929	6.92937895272
99.484406	-3.201976	6.88414434389
99.468548	-3.180022	6.72146260739
99.45269	-3.158068	6.44886003275
99.436833	-3.136114	6.12028143898
99.420977	-3.114159	5.77269599427
99.405122	-3.092205	5.42333546836
99.389267	-3.07025	5.10595787513
99.373412	-3.048295	4.82070776866
99.357559	-3.026339	4.54553787583
99.341705	-3.004384	4.2808104293
99.325853	-2.982428	3.99178764569
99.310001	-2.960472	3.56426436442
99.29415	-2.938516	2.99328973233
99.278299	-2.916559	2.37725499955
99.262449	-2.894602	1.79755893934
99.2466	-2.872645	1.4590536668
100.077436	-3.976318	2.23295244436
100.061551	-3.954374	2.45254404507
100.045667	-3.932431	2.69523446256
100.029784	-3.910486	2.89075487953
100.013901	-3.888542	2.96565062253
99.998019	-3.866597	2.91908320092
99.982138	-3.844652	2.82235973932
99.966258	-3.822707	2.73136957643
99.950379	-3.800761	2.66763661519
99.9345	-3.778815	2.63290211987
99.918623	-3.756869	2.61795076043
99.902746	-3.734923	2.61653145462
99.886869	-3.712976	2.63259676072
99.870994	-3.691029	2.67708589229
99.855119	-3.669082	2.75763525205
99.839245	-3.647134	2.87058768304
99.823372	-3.625186	3.01073420434
99.8075	-3.603238	3.17968391037
99.791628	-3.581289	3.39258749848
99.775757	-3.559341	3.66378271057
99.759887	-3.537392	3.97303918442
99.744018	-3.515442	4.28698993744
99.728149	-3.493493	4.60719268001
99.712281	-3.471543	4.95569697941
99.696413	-3.449593	5.29952071497
99.680547	-3.427642	5.56565886189
99.664681	-3.405692	5.72072094975
99.648816	-3.383741	5.82787513949
99.632951	-3.36179	6.00926344966
99.617088	-3.339838	6.26478496334
99.601224	-3.317887	6.48798037332
99.585362	-3.295935	6.622372597
99.5695	-3.273983	6.6845731374
99.553639	-3.25203	6.69547812482
99.537779	-3.230078	6.65664003914
99.521919	-3.208125	6.57067967187
99.50606	-3.186172	6.43796444506
99.490202	-3.164218	6.25832033737
99.474344	-3.142265	6.0366041688
99.458487	-3.120311	5.78566163194
99.44263	-3.098357	5.51537680279
99.426774	-3.076402	5.21950466244
99.410919	-3.054448	4.87956181107
99.395065	-3.032493	4.49099322385
99.379211	-3.010538	4.07429107835
99.363357	-2.988583	3.64988063099
99.347505	-2.966627	3.23313712759
99.331652	-2.944672	2.83338080652
99.315801	-2.922716	2.43966586175
99.29995	-2.900759	2.0489987858
99.2841	-2.878803	1.71442203434
99.26825	-2.856847	1.53964940712
100.099098	-3.960501	1.81222031345
100.083213	-3.938558	2.03907472449
100.067328	-3.916614	2.2376004035
100.051445	-3.894671	2.37650470511
100.035562	-3.872726	2.46050702233
100.01968	-3.850782	2.49703365598
100.003799	-3.828837	2.47401293564
99.987918	-3.806892	2.39645930604
99.972039	-3.784947	2.3144671585
99.95616	-3.763002	2.33688559693
99.940282	-3.741056	2.45145988424
99.924405	-3.71911	2.56807105379
99.908528	-3.697163	2.67916460253
99.892653	-3.675217	2.79204313918
99.876778	-3.65327	2.90210485183
99.860904	-3.631322	3.04005249204
99.84503	-3.609375	3.24408012366
99.829158	-3.587427	3.51193234253
99.813286	-3.565479	3.78477848286
99.797415	-3.54353	4.04155100068
99.781544	-3.521582	4.3637581379
99.765674	-3.499633	4.79523765646
99.749805	-3.477684	5.29711577173
99.733937	-3.455734	5.67791628812
99.71807	-3.433784	5.84653941721
99.702203	-3.411834	6.00675056789
99.686337	-3.389884	6.25541700637
99.670471	-3.367934	6.5066852747
99.654607	-3.345983	6.57100380666
99.638742	-3.324032	6.54572260751
99.622879	-3.30208	6.61113495762
99.607016	-3.280129	6.77630511183
99.591155	-3.258177	6.9175681737
99.575293	-3.236225	6.80808445964
99.559433	-3.214273	6.53379170386
99.543573	-3.19232	6.27688700258
99.527713	-3.170367	6.05067174455
99.511855	-3.148414	5.84407912892
99.495997	-3.126461	5.6525992115
99.480139	-3.104508	5.46223117609
99.464283	-3.082554	5.2705561571
99.448426	-3.0606	5.04668860217
99.432571	-3.038645	4.68822334502
99.416716	-3.016691	4.17450811748
99.400862	-2.994736	3.60419867962
99.385008	-2.972781	3.01401130916
99.369155	-2.950826	2.46497982549
99.353303	-2.928871	2.1195693439
99.337451	-2.906915	1.91357157975
99.3216	-2.884959	1.70686431443
99.30575	-2.863003	1.51984775135
99.2899	-2.841047	1.43240625195
100.120759	-3.944683	1.39905549687
100.104873	-3.922741	1.67984538754
100.088989	-3.900798	1.85419364616
100.073105	-3.878854	1.93641303621
100.057222	-3.85691	2.01832192869
100.04134	-3.834966	2.14344859151
100.025458	-3.813022	2.18396689698
100.009578	-3.791078	2.10874258901
99.993698	-3.769133	1.92901465306
99.977819	-3.747187	2.03735703746
99.961941	-3.725242	2.31711838097
99.946063	-3.703296	2.52438053195
99.930187	-3.68135	2.7072002608
99.914311	-3.659404	2.89295036457
99.898436	-3.637457	2.99991221532
99.882561	-3.61551	3.13767354266
99.866688	-3.593563	3.39640944469
99.850815	-3.571616	3.79487362524
99.834943	-3.549668	4.1470351022
99.819071	-3.52772	4.31189164309
99.8032	-3.505771	4.62791664487
99.787331	-3.483823	5.16680681845
99.771461	-3.461874	5.9508511895
99.755593	-3.439925	6.46854419383
99.739725	-3.417976	6.29374207965
99.723858	-3.396026	6.33245831945
99.707992	-3.374076	6.6880665731
99.692126	-3.352126	7.23960788902
99.676261	-3.330175	7.05738381246
99.660397	-3.308225	6.69548594377
99.644533	-3.286274	6.62618626545
99.62867	-3.264322	6.84589361365
99.612808	-3.242371	7.25311293048
99.596947	-3.220419	6.90285496643
99.581086	-3.198467	6.34799749026
99.565225	-3.176515	5.96410003649
99.549366	-3.154563	5.67016322024
99.533507	-3.13261	5.43565948022
99.517649	-3.110657	5.27880398058
99.501791	-3.088704	5.12994774503
99.485934	-3.06675	5.00993427043
99.470078	-3.044797	4.92910293221
99.454222	-3.022843	4.57019008331
99.438367	-3.000888	3.86016419129
99.422513	-2.978934	3.15749766357
99.406659	-2.956979	2.43025931816
99.390806	-2.935025	1.64445966537
99.374953	-2.91307	1.44664432478
99.359101	-2.891114	1.45731836917
99.34325	-2.869159	1.3820317128
99.327399	-2.847203	1.27215787292
99.311549	-2.825247	1.2036041712
100.142419	-3.928865	1.20440227076
100.126534	-3.906923	1.45260894349
100.110649	-3.88498	1.59091308281
100.094765	-3.863037	1.63812899133
100.078881	-3.841094	1.71821892205
100.062999	-3.81915	1.91249701609
100.047117	-3.797206	2.01836158414
100.031237	-3.775262	2.01049145314
100.015357	-3.753318	1.90671799004
99.999477	-3.731373	2.03374710759
99.983599	-3.709428	2.30276793858
99.967721	-3.687482	2.50399679985
99.951844	-3.665537	2.68269944251
99.935968	-3.643591	2.87695847799
99.920093	-3.621644	2.97052028284
99.904218	-3.599698	3.1068973942
99.888344	-3.577751	3.37754457941
99.872471	-3.555804	3.80442107414
99.856599	-3.533856	4.18348143404
99.840727	-3.511909	4.33181913042
99.824856	-3.489961	4.65093435248
99.808986	-3.468012	5.1971812067
99.793117	-3.446064	5.97735439281
99.777248	-3.424115	6.47254156246
99.76138	-3.402166	6.29283087948
99.745513	-3.380217	6.30727009207
99.729646	-3.358267	6.63247386344
99.71378	-3.336317	7.13502584199
99.697915	-3.314367	6.90731639497
99.68205	-3.292417	6.48425504819
99.666187	-3.270466	6.33985346908
99.650323	-3.248515	6.47510269052
99.634461	-3.226564	6.74878780866
99.618599	-3.204613	6.44169893875
99.602738	-3.182661	5.93328154096
99.586878	-3.160709	5.57112196113
99.571018	-3.138757	5.29726573502
99.555159	-3.116805	5.07928165428
99.5393	-3.094852	4.91623935954
99.523442	-3.072899	4.76161320168
99.507585	-3.050946	4.63542726975
99.491729	-3.028993	4.55833667172
99.475873	-3.007039	4.18757222905
99.460017	-2.985085	3.45117608356
99.444163	-2.963131	2.74210719397
99.428309	-2.941177	2.04312397915
99.412455	-2.919223	1.39305986204
99.396602	-2.897268	1.15737381287
99.38075	-2.875313	1.15069085618
99.364899	-2.853358	1.1207341557
99.349048	-2.831402	1.06800283082
99.333197	-2.809447	1.05147317601
100.164079	-3.913047	1.24807147497
100.148193	-3.891105	1.36277860457
100.132308	-3.869162	1.44690427132
100.116424	-3.84722	1.51453600218
100.10054	-3.825277	1.6312656806
100.084657	-3.803334	1.81076165098
100.068776	-3.78139	1.98223154781
100.052895	-3.759446	2.10152992788
100.037014	-3.737502	2.18077121711
100.021135	-3.715558	2.28832558047
100.005256	-3.693613	2.41254509935
99.989378	-3.671668	2.50997023162
99.973501	-3.649722	2.59733811064
99.957625	-3.627777	2.69189767253
99.941749	-3.605831	2.79033685608
99.925874	-3.583885	2.93672011183
99.91	-3.561938	3.17403798187
99.894127	-3.539991	3.49281196494
99.878254	-3.518044	3.80271738396
99.862382	-3.496097	4.07768053459
99.846511	-3.474149	4.42393764173
99.830641	-3.452202	4.88777632974
99.814771	-3.430253	5.40370269222
99.798902	-3.408305	5.74207496188
99.783034	-3.386356	5.8349982592
99.767166	-3.364407	5.91808270203
99.7513	-3.342458	6.09985540015
99.735433	-3.320509	6.25351278443
99.719568	-3.298559	6.15181508978
99.703703	-3.276609	5.90813999507
99.687839	-3.254658	5.74045086162
99.671976	-3.232708	5.70106062798
99.656113	-3.210757	5.68847968949
99.640251	-3.188806	5.53143180821
99.62439	-3.166855	5.29293139739
99.608529	-3.144903	5.08848561976
99.592669	-3.122951	4.91710768279
99.57681	-3.100999	4.74824690591
99.560951	-3.079047	4.56308131481
99.545093	-3.057095	4.35766604844
99.529236	-3.035142	4.14335604295
99.513379	-3.013189	3.89428369643
99.497523	-2.991235	3.49248108661
99.481667	-2.969282	2.93270856147
99.465812	-2.947328	2.33577387322
99.449958	-2.925374	1.76535568838
99.434104	-2.90342	1.29959086469
99.418251	-2.881466	1.0414712692
99.402399	-2.859511	0.948306567581
99.386547	-2.837556	0.915892025434
99.370696	-2.815601	0.91156573972
99.354845	-2.793646	0.963893221355
100.185738	-3.897228	1.33599615345
100.169851	-3.875286	1.33892276029
100.153966	-3.853344	1.35366050263
100.138082	-3.831402	1.40489566651
100.122198	-3.809459	1.5356612316
100.106315	-3.787516	1.75577742667
100.090433	-3.765573	2.02336804341
100.074552	-3.74363	2.28668896273
100.058671	-3.721686	2.49331082748
100.042792	-3.699742	2.59135801728
100.026913	-3.677797	2.58346846844
100.011034	-3.655853	2.53031982435
99.995157	-3.633908	2.48564748597
99.979281	-3.611963	2.4815300429
99.963405	-3.590017	2.5397325362
99.94753	-3.568071	2.66897517584
99.931655	-3.546125	2.86381678651
99.915782	-3.524179	3.10932974634
99.899909	-3.502232	3.38536812057
99.884037	-3.480285	3.69029375047
99.868165	-3.458338	4.04081040962
99.852295	-3.43639	4.43300628072
99.836425	-3.414442	4.81304923131
99.820556	-3.392494	5.09211455065
99.804687	-3.370546	5.24790794534
99.788819	-3.348597	5.34978086525
99.772952	-3.326648	5.43876132892
99.757086	-3.304699	5.46646139925
99.74122	-3.28275	5.36775844345
99.725355	-3.2608	5.17254258157
99.709491	-3.23885	4.96260348131
99.693628	-3.2169	4.78527642773
99.677765	-3.194949	4.65429926783
99.661902	-3.172999	4.579825572
99.646041	-3.151048	4.55747261757
99.63018	-3.129097	4.55688085802
99.61432	-3.107145	4.53476710686
99.59846	-3.085193	4.43420720293
99.582601	-3.063241	4.22756427839
99.566743	-3.041289	3.94820062527
99.550885	-3.019337	3.63349227597
99.535028	-2.997384	3.28245088486
99.519172	-2.975431	2.87468146073
99.503316	-2.953478	2.41229973744
99.487461	-2.931525	1.92444709576
99.471606	-2.909571	1.45389078323
99.455753	-2.887617	1.06963575773
99.439899	-2.865663	0.837818566097
99.424047	-2.843709	0.744546716691
99.408194	-2.821754	0.723738524803
99.392343	-2.799799	0.744249901832
99.376492	-2.777844	0.819150823704
100.207396	-3.881408	1.42341876299
100.191509	-3.859467	1.32373055504
100.175624	-3.837525	1.25163289711
100.159739	-3.815584	1.2421723652
100.143855	-3.793641	1.37327707239
100.127972	-3.771699	1.67858121384
100.11209	-3.749756	2.08422909727
100.096208	-3.727813	2.53126959383
100.080328	-3.705869	2.91467544877
100.064448	-3.683926	2.99573812664
100.048568	-3.661982	2.78862279901
100.03269	-3.640037	2.54090633267
100.016812	-3.618093	2.33709542134
100.000936	-3.596148	2.21430556543
99.98506	-3.574203	2.22586046644
99.969184	-3.552257	2.34355647317
99.95331	-3.530311	2.50375186264
99.937436	-3.508365	2.69179020385
99.921563	-3.486419	2.9318008503
99.905691	-3.464472	3.24050848826
99.889819	-3.442525	3.58796088124
99.873948	-3.420578	3.94610128898
99.858078	-3.398631	4.27993994894
99.842209	-3.376683	4.52720728262
99.82634	-3.354735	4.66253683326
99.810472	-3.332787	4.73836766169
99.794605	-3.310838	4.78333223318
99.778738	-3.288889	4.76775402653
99.762872	-3.26694	4.64114543193
99.747007	-3.244991	4.4139440964
99.731142	-3.223041	4.12865206238
99.715279	-3.201091	3.80948402058
99.699415	-3.179141	3.5550574698
99.683553	-3.157191	3.5699979827
99.667691	-3.13524	3.79014516253
99.65183	-3.113289	4.02438383563
99.63597	-3.091338	4.20571006823
99.62011	-3.069387	4.20636701795
99.604251	-3.047435	3.93798071804
99.588392	-3.025483	3.55407825336
99.572534	-3.003531	3.14514345074
99.556677	-2.981579	2.72149190591
99.54082	-2.959626	2.31342304135
99.524964	-2.937673	1.92787147535
99.509109	-2.91572	1.52187709851
99.493254	-2.893767	1.09498457275
99.4774	-2.871813	0.719588370771
99.461547	-2.84986	0.535112861218
99.445694	-2.827906	0.513111225252
99.429841	-2.805951	0.528233508619
99.41399	-2.783997	0.553674770269
99.398139	-2.762042	0.62258052763
100.229053	-3.865588	1.49130735785
100.213166	-3.843647	1.28721246654
100.197281	-3.821706	1.12704773034
100.181396	-3.799765	0.997855648222
100.165512	-3.777823	1.09160241824
100.149628	-3.755881	1.55415231675
100.133746	-3.733938	2.10746936408
100.117864	-3.711995	2.74632014697
100.101983	-3.690052	3.47642910132
100.086103	-3.668109	3.49652527322
100.070224	-3.646165	2.94328798066
100.054345	-3.624221	2.50198995046
100.038467	-3.602277	2.14009495164
100.02259	-3.580333	1.85159879669
100.006714	-3.558388	1.85645879073
99.990838	-3.536443	2.00393804651
99.974963	-3.514497	2.13578308517
99.959089	-3.492551	2.24881368213
99.943216	-3.470605	2.42974814183
99.927344	-3.448659	2.76393558242
99.911472	-3.426713	3.11209835328
99.895601	-3.404766	3.45354968534
99.87973	-3.382819	3.78951462414
99.863861	-3.360871	4.03266481472
99.847992	-3.338924	4.08962938266
99.832124	-3.316976	4.12035799635
99.816256	-3.295027	4.14632460638
99.800389	-3.273079	4.14182612266
99.784523	-3.25113	3.97551873413
99.768658	-3.229181	3.69071916826
99.752793	-3.207232	3.33795800205
99.736929	-3.185283	2.87169256196
99.721066	-3.163333	2.32830138182
99.705203	-3.141383	2.52457427652
99.689341	-3.119432	3.05693980855
99.67348	-3.097482	3.50047989345
99.657619	-3.075531	3.92641032241
99.641759	-3.05358	4.12755464733
99.625899	-3.031629	3.65346279159
99.610041	-3.009677	3.15811810703
99.594183	-2.987725	2.68195578295
99.578325	-2.965773	2.1793738782
99.562468	-2.943821	1.76961466462
99.546612	-2.921868	1.50262316558
99.530756	-2.899916	1.17249811975
99.514902	-2.877963	0.760028164231
99.499047	-2.856009	0.287726122567
99.483193	-2.834056	0.196193996139
99.46734	-2.812102	0.304663369867
99.451488	-2.790148	0.359105691046
99.435636	-2.768194	0.368270496498
99.419784	-2.74624	0.377292662683
100.250709	-3.849768	1.42180575427
100.234823	-3.827827	1.20733715679
100.218937	-3.805887	1.03153429883
100.203052	-3.783945	0.848973232237
100.187167	-3.762004	0.892568661238
100.171284	-3.740062	1.46357530173
100.155401	-3.71812	2.05143556643
100.139519	-3.696178	2.69632343269
100.123638	-3.674235	3.40084688377
100.107757	-3.652292	3.40871442027
100.091878	-3.630349	2.85512587947
100.075999	-3.608405	2.3801345251
100.060121	-3.586461	1.96636637903
100.044244	-3.564517	1.58823621405
100.028367	-3.542572	1.58615637504
100.012491	-3.520628	1.71740777682
99.996617	-3.498683	1.81326142577
99.980742	-3.476737	1.87710050828
99.964869	-3.454792	2.00576369336
99.948996	-3.432846	2.32522813203
99.933124	-3.410899	2.6413001403
99.917253	-3.388953	2.94404428551
99.901382	-3.367006	3.24349858226
99.885512	-3.345059	3.45608942016
99.869643	-3.323112	3.48076114635
99.853775	-3.301164	3.48637271406
99.837907	-3.279216	3.49112286969
99.82204	-3.257268	3.47554166358
99.806174	-3.23532	3.30158327198
99.790308	-3.213371	3.01979613365
99.774443	-3.191422	2.67820224354
99.758579	-3.169473	2.23530898347
99.742715	-3.147524	1.75519991618
99.726852	-3.125574	1.94964547824
99.71099	-3.103624	2.48255901484
99.695128	-3.081674	2.94640608396
99.679267	-3.059723	3.37946611416
99.663407	-3.037773	3.56641158881
99.647548	-3.015822	3.17698041608
99.631689	-2.99387	2.72237942523
99.61583	-2.971919	2.27325277369
99.599973	-2.949967	1.78655368448
99.584116	-2.928015	1.40621591424
99.568259	-2.906063	1.20292185251
99.552403	-2.884111	0.928394027648
99.536548	-2.862158	0.577921863643
99.520694	-2.840205	0.209653477927
99.50484	-2.818252	0.118213962202
99.488986	-2.796298	0.204254349681
99.473133	-2.774345	0.261493222428
99.457281	-2.752391	0.275149422433
99.44143	-2.730437	0.283887515594
100.272365	-3.833947	1.20098800874
100.256478	-3.812007	1.08630287602
100.240592	-3.790066	0.989186446977
100.224707	-3.768126	0.944104735707
100.208822	-3.746184	1.08584625692
100.192938	-3.724243	1.46568964624
100.177055	-3.702301	1.93490221609
100.161173	-3.680359	2.41184093492
100.145292	-3.658417	2.78267909852
100.129411	-3.636474	2.81447074728
100.113532	-3.614531	2.54077252559
100.097652	-3.592588	2.18405699346
100.081774	-3.570644	1.83995068547
100.065897	-3.548701	1.5742448675
100.05002	-3.526757	1.47926525829
100.034144	-3.504812	1.50090406276
100.018269	-3.482867	1.5488698984
100.002394	-3.460922	1.61125285154
99.986521	-3.438977	1.73696886664
99.970648	-3.417032	1.94832570067
99.954775	-3.395086	2.18942459366
99.938904	-3.37314	2.42419114981
99.923033	-3.351193	2.63473833052
99.907163	-3.329246	2.77920969475
99.891294	-3.307299	2.83648589592
99.875425	-3.285352	2.84370127872
99.859557	-3.263405	2.82009951442
99.84369	-3.241457	2.75353325858
99.827823	-3.219509	2.61321466577
99.811957	-3.197561	2.40596344219
99.796092	-3.175612	2.15137998352
99.780228	-3.153663	1.86986459959
99.764364	-3.131714	1.67721668878
99.748501	-3.109765	1.76510816376
99.732638	-3.087815	2.05989077222
99.716777	-3.065865	2.38042764032
99.700915	-3.043915	2.63848527053
99.685055	-3.021965	2.71284624906
99.669195	-3.000014	2.54491516962
99.653336	-2.978063	2.25666211925
99.637477	-2.956112	1.92577071693
99.621619	-2.934161	1.57844175967
99.605762	-2.912209	1.27772240343
99.589905	-2.890257	1.03392246151
99.574049	-2.868305	0.783017912316
99.558194	-2.846353	0.514507595756
99.542339	-2.8244	0.28592028262
99.526485	-2.802447	0.185427335253
99.510631	-2.780494	0.19368526586
99.494778	-2.758541	0.233384927139
99.478926	-2.736587	0.2748676481
99.463074	-2.714634	0.342048790848
100.29402	-3.818126	0.964894537335
100.278133	-3.796186	0.946149142743
100.262247	-3.774246	0.942354566866
100.246361	-3.752305	0.995045754977
100.230476	-3.730364	1.16320893315
100.214592	-3.708423	1.45393026828
100.198709	-3.686482	1.80178226082
100.182827	-3.66454	2.12744629991
100.166945	-3.642598	2.34332870016
100.151064	-3.620656	2.36930274457
100.135184	-3.598714	2.21310228364
100.119305	-3.576771	1.95537442043
100.103427	-3.554827	1.67664704309
100.087549	-3.532884	1.45173274381
100.071672	-3.51094	1.33141486614
100.055796	-3.488996	1.29675256779
100.03992	-3.467052	1.3025387236
100.024046	-3.445107	1.33950438612
100.008172	-3.423162	1.42999543056
99.992299	-3.401217	1.58018485437
99.976426	-3.379272	1.75694873688
99.960554	-3.357326	1.92372982216
99.944683	-3.33538	2.06250720743
99.928813	-3.313433	2.16531016444
99.912944	-3.291487	2.22324258865
99.897075	-3.26954	2.22741862435
99.881207	-3.247593	2.17881692219
99.865339	-3.225645	2.09085247182
99.849472	-3.203697	1.98134354498
99.833606	-3.18175	1.85237232469
99.817741	-3.159801	1.6968138649
99.801876	-3.137853	1.53795060294
99.786012	-3.115904	1.4514311435
99.770149	-3.093955	1.50718825379
99.754286	-3.072006	1.67232683377
99.738424	-3.050056	1.85519882609
99.722563	-3.028106	1.98571430472
99.706702	-3.006156	2.02183543559
99.690842	-2.984206	1.95618402738
99.674983	-2.962255	1.81041072808
99.659124	-2.940305	1.6103295589
99.643266	-2.918354	1.37984205681
99.627408	-2.896402	1.14333511926
99.611551	-2.874451	0.911537387485
99.595695	-2.852499	0.681103120281
99.579839	-2.830547	0.461119522291
99.563984	-2.808595	0.287355669783
99.54813	-2.786642	0.199115522796
99.532276	-2.764689	0.192797020943
99.516423	-2.742736	0.231899828256
99.50057	-2.720783	0.292365973756
99.484718	-2.69883	0.370321962741
100.315675	-3.802304	0.739278354702
100.299787	-3.780364	0.801372420933
100.283901	-3.758425	0.862660681844
100.268015	-3.736484	0.954900445016
100.25213	-3.714544	1.13394641441
100.236246	-3.692603	1.39981683047
100.220362	-3.670662	1.6840990591
100.20448	-3.648721	1.92449710226
100.188598	-3.626779	2.06899315384
100.172717	-3.604838	2.07958530031
100.156837	-3.582895	1.95615745882
100.140957	-3.560953	1.73305872835
100.125079	-3.53901	1.46152678783
100.109201	-3.517067	1.22869975377
100.093323	-3.495123	1.11613267573
100.077447	-3.47318	1.07755829314
100.061571	-3.451236	1.0517333755
100.045696	-3.429291	1.03838982862
100.029822	-3.407347	1.08249493517
100.013949	-3.385402	1.20666781068
99.998076	-3.363457	1.3510293523
99.982204	-3.341511	1.46227744303
99.966333	-3.319566	1.53327375321
99.950463	-3.29762	1.60405286725
99.934593	-3.275673	1.67206354482
99.918724	-3.253727	1.67250247709
99.902855	-3.23178	1.58791176258
99.886988	-3.209833	1.46275005672
99.871121	-3.187886	1.38905856611
99.855254	-3.165938	1.35570430483
99.839389	-3.14399	1.2866088513
99.823524	-3.122042	1.18254926869
99.80766	-3.100093	1.11691736646
99.791796	-3.078145	1.17365093893
99.775933	-3.056196	1.2940203942
99.760071	-3.034247	1.38913197663
99.744209	-3.012297	1.42485484471
99.728348	-2.990347	1.42871416132
99.712488	-2.968397	1.43902115857
99.696628	-2.946447	1.41079697247
99.68077	-2.924497	1.32320075203
99.664911	-2.902546	1.18789840435
99.649053	-2.880595	1.00766796866
99.633196	-2.858644	0.798203179591
99.61734	-2.836692	0.585492500834
99.601484	-2.814741	0.383600706067
99.585629	-2.792789	0.221075573025
99.569774	-2.770837	0.151273499368
99.55392	-2.748884	0.169948367892
99.538067	-2.726931	0.22825116082
99.522214	-2.704979	0.30676439129
99.506362	-2.683025	0.386552879058
100.337328	-3.786481	0.532409258105
100.321441	-3.764542	0.676003746365
100.305554	-3.742603	0.776176394107
100.289668	-3.720663	0.855611261725
100.273783	-3.698723	1.04303916426
100.257898	-3.676783	1.3402483429
100.242015	-3.654842	1.60509442748
100.226132	-3.632901	1.80533959231
100.21025	-3.61096	1.91701348462
100.194369	-3.589019	1.91095235354
100.178488	-3.567077	1.78441031556
100.162608	-3.545134	1.5569055393
100.14673	-3.523192	1.23965740286
100.130851	-3.501249	0.921850179205
100.114974	-3.479306	0.879706479479
100.099097	-3.457363	0.873468931201
100.083222	-3.435419	0.818076313893
100.067347	-3.413475	0.721844774189
100.051472	-3.391531	0.691917205876
100.035599	-3.369587	0.852059130577
100.019726	-3.347642	0.999659583414
100.003853	-3.325697	1.07076867493
99.987982	-3.303751	1.05339322962
99.972111	-3.281806	1.09655911872
99.956241	-3.25986	1.21924349914
99.940372	-3.237914	1.22162955679
99.924503	-3.215967	1.08567971484
99.908636	-3.19402	0.846769512098
99.892768	-3.172073	0.834328735378
99.876902	-3.150126	0.946145533106
99.861036	-3.128178	0.949696090241
99.845171	-3.106231	0.855778912856
99.829306	-3.084282	0.724656962489
99.813443	-3.062334	0.843598322993
99.79758	-3.040385	0.966045152566
99.781717	-3.018437	1.00612558207
99.765855	-2.996487	0.945852988191
99.749994	-2.974538	0.872561319247
99.734134	-2.952588	1.00071495744
99.718274	-2.930639	1.0734085795
99.702415	-2.908688	1.07051964719
99.686556	-2.886738	1.02257332162
99.670698	-2.864787	0.883442449527
99.654841	-2.842836	0.68489385608
99.638984	-2.820885	0.489278368685
99.623128	-2.798934	0.294725473455
99.607273	-2.776982	0.102959856748
99.591418	-2.75503	0.0618323031945
99.575564	-2.733078	0.133054501561
99.55971	-2.711126	0.213101726175
99.543857	-2.689173	0.310416919873
99.528004	-2.667221	0.406664853796
100.358981	-3.770659	0.42311435922
100.343093	-3.74872	0.609609482301
100.327206	-3.726781	0.743266465705
100.31132	-3.704842	0.83606682015
100.295435	-3.682902	1.03299080664
100.27955	-3.660962	1.33390389516
100.263666	-3.639022	1.58294187583
100.247783	-3.617081	1.76161505784
100.231901	-3.59514	1.85412601248
100.21602	-3.573199	1.83464444985
100.200139	-3.551258	1.7007789217
100.184259	-3.529316	1.47019367668
100.16838	-3.507374	1.15101290656
100.152502	-3.485431	0.827781126267
100.136624	-3.463489	0.769444678731
100.120747	-3.441546	0.740480096407
100.104871	-3.419602	0.655254222693
100.088996	-3.397659	0.512653973852
100.073121	-3.375715	0.422641006121
100.057247	-3.353771	0.602588516971
100.041374	-3.331826	0.741376085232
100.025502	-3.309881	0.800450758985
100.00963	-3.287936	0.784438279422
99.993759	-3.265991	0.822982146372
99.977889	-3.244046	0.922897795513
99.96202	-3.2221	0.921837554786
99.946151	-3.200154	0.78673768524
99.930283	-3.178207	0.530630031817
99.914415	-3.15626	0.551040598484
99.898549	-3.134313	0.702264271417
99.882683	-3.112366	0.734446118753
99.866817	-3.090419	0.6719661329
99.850953	-3.068471	0.593155917462
99.835089	-3.046523	0.657448555233
99.819225	-3.024575	0.737730815553
99.803363	-3.002626	0.746612555465
99.787501	-2.980677	0.668172999338
99.771639	-2.958728	0.596967580183
99.755779	-2.936779	0.723316810038
99.739919	-2.914829	0.815491958224
99.724059	-2.89288	0.842166897916
99.7082	-2.870929	0.826078572466
99.692342	-2.848979	0.722269414605
99.676485	-2.827029	0.559775445482
99.660628	-2.805078	0.397113801836
99.644771	-2.783127	0.234877332239
99.628916	-2.761175	0.0819257682639
99.613061	-2.739224	0.0487011465111
99.597206	-2.717272	0.110266319509
99.581352	-2.69532	0.182811756487
99.565499	-2.673368	0.265531223925
99.549646	-2.651415	0.333433421029
100.380633	-3.754835	0.42760918364
100.364745	-3.732897	0.608864280664
100.348858	-3.710958	0.778354652613
100.332972	-3.689019	0.944727040699
100.317086	-3.66708	1.15298849836
100.301201	-3.645141	1.39631049959
100.285317	-3.623201	1.61934065
100.269434	-3.60126	1.78747890555
100.253552	-3.57932	1.87111288672
100.23767	-3.557379	1.84273584176
100.221789	-3.535438	1.70096826226
100.205909	-3.513496	1.47245032484
100.19003	-3.491555	1.19692318455
100.174151	-3.469613	0.948222336819
100.158273	-3.44767	0.79258269653
100.142396	-3.425728	0.683886607213
100.12652	-3.403785	0.572823378688
100.110644	-3.381842	0.463003343235
100.09477	-3.359898	0.42163338102
100.078896	-3.337954	0.486739399292
100.063022	-3.31601	0.576159157228
100.04715	-3.294066	0.638270078469
100.031278	-3.272121	0.674838101766
100.015407	-3.250176	0.720087968653
99.999536	-3.228231	0.767170445459
99.983667	-3.206285	0.766100290993
99.967798	-3.18434	0.696470147821
99.951929	-3.162393	0.600756444288
99.936062	-3.140447	0.586572563127
99.920195	-3.118501	0.626991830086
99.904329	-3.096554	0.633831861794
99.888463	-3.074606	0.600378847269
99.872598	-3.052659	0.568896108276
99.856734	-3.030711	0.578081816956
99.84087	-3.008763	0.60053093642
99.825008	-2.986815	0.597702993005
99.809145	-2.964867	0.56538936057
99.793284	-2.942918	0.550999484177
99.777423	-2.920969	0.589203279113
99.761563	-2.89902	0.629206600032
99.745703	-2.87707	0.637732619646
99.729844	-2.855121	0.608523450419
99.713986	-2.833171	0.532806594631
99.698128	-2.81122	0.423801187396
99.682271	-2.78927	0.307351873493
99.666414	-2.767319	0.197059401737
99.650558	-2.745368	0.110655667511
99.634703	-2.723417	0.0787776042728
99.618848	-2.701465	0.0976025998144
99.602994	-2.679514	0.139733198548
99.587141	-2.657562	0.188001800967
99.571288	-2.63561	0.219849208471
100.402285	-3.739012	0.444758095326
100.386396	-3.717074	0.63470914361
100.370509	-3.695135	0.83732982276
100.354622	-3.673197	1.04808671905
100.338737	-3.651258	1.2654358105
100.322852	-3.629319	1.48405104615
100.306967	-3.607379	1.69498078428
100.291084	-3.585439	1.87703324008
100.275201	-3.563499	1.98170519302
100.259319	-3.541559	1.94866216434
100.243438	-3.519618	1.77377204501
100.227558	-3.497677	1.52105404236
100.211679	-3.475735	1.25411873495
100.1958	-3.453794	1.01256822986
100.179922	-3.431852	0.813216942751
100.164045	-3.409909	0.650251785137
100.148168	-3.387967	0.51545328068
100.132292	-3.366024	0.416103843748
100.116417	-3.344081	0.374748276445
100.100543	-3.322137	0.397190636509
100.08467	-3.300194	0.456224238827
100.068797	-3.27825	0.52430200234
100.052925	-3.256305	0.588707282438
100.037054	-3.234361	0.642343372044
100.021183	-3.212416	0.677944934626
100.005313	-3.190471	0.692098200211
99.989444	-3.168525	0.685906375242
99.973575	-3.146579	0.667929726482
99.957707	-3.124633	0.64834918744
99.94184	-3.102687	0.624206083131
99.925974	-3.080741	0.592118724739
99.910108	-3.058794	0.557192890369
99.894243	-3.036847	0.528816455188
99.878379	-3.014899	0.51266477643
99.862515	-2.992952	0.505557689949
99.846652	-2.971004	0.500548880319
99.830789	-2.949056	0.494994756237
99.814928	-2.927107	0.491790470575
99.799066	-2.905159	0.489584452454
99.783206	-2.88321	0.481465144235
99.767346	-2.861261	0.461301049577
99.751487	-2.839311	0.423138846652
99.735628	-2.817361	0.36302934061
99.71977	-2.795412	0.287831467559
99.703913	-2.773461	0.21251807727
99.688056	-2.751511	0.148953424737
99.6722	-2.72956	0.102331585056
99.656345	-2.707609	0.0745881122698
99.64049	-2.685658	0.0693528102917
99.624636	-2.663707	0.0858649075971
99.608782	-2.641755	0.112138857291
99.592929	-2.619803	0.126453955051
100.423935	-3.723187	0.443182458596
100.408047	-3.70125	0.652431948001
100.392159	-3.679312	0.890375648204
100.376272	-3.657374	1.14338130773
100.360386	-3.635435	1.36939025943
100.344501	-3.613496	1.56351445053
100.328617	-3.591557	1.7734195022
100.312733	-3.569618	2.00969687001
100.29685	-3.547678	2.20135963393
100.280968	-3.525738	2.17084105283
100.265087	-3.503797	1.89555435497
100.249207	-3.481857	1.5687823117
100.233327	-3.459916	1.28151820973
100.217448	-3.437974	1.03366416948
100.20157	-3.416033	0.801666999
100.185692	-3.394091	0.596751230459
100.169816	-3.372148	0.436117781963
100.15394	-3.350206	0.32561633149
100.138065	-3.328263	0.274994432479
100.12219	-3.30632	0.284300255864
100.106316	-3.284377	0.337263371089
100.090443	-3.262433	0.420393662782
100.074571	-3.240489	0.51658717373
100.0587	-3.218545	0.58319271717
100.042829	-3.1966	0.608778325942
100.026959	-3.174655	0.638674824692
100.011089	-3.15271	0.69079429059
99.99522	-3.130765	0.739140941972
99.979352	-3.108819	0.717211913116
99.963485	-3.086873	0.633004872813
99.947618	-3.064927	0.558094822905
99.931753	-3.042981	0.513372430364
99.915887	-3.021034	0.481295145546
99.900023	-2.999087	0.443075422457
99.884159	-2.97714	0.414743877248
99.868295	-2.955192	0.411446571499
99.852433	-2.933244	0.428845924805
99.836571	-2.911296	0.435014130951
99.820709	-2.889348	0.397630478743
99.804849	-2.867399	0.344842375317
99.788989	-2.84545	0.299489317734
99.773129	-2.823501	0.256850505469
99.757271	-2.801552	0.205415273082
99.741412	-2.779602	0.148427758402
99.725555	-2.757652	0.103360214704
99.709698	-2.735702	0.0813996328798
99.693842	-2.713752	0.0723729584784
99.677986	-2.691802	0.0428662737992
99.662131	-2.669851	0.0142455479949
99.646276	-2.6479	0.0154960132244
99.630423	-2.625948	0.0396705979307
99.614569	-2.603997	0.0553358377483
100.445585	-3.707363	0.415379410584
100.429697	-3.685425	0.637749025706
100.413809	-3.663488	0.910642523617
100.397922	-3.64155	1.23456102527
100.382036	-3.619612	1.46931755292
100.36615	-3.597673	1.59071515266
100.350266	-3.575735	1.78847928919
100.334382	-3.553796	2.10037793318
100.318499	-3.531856	2.51359651913
100.302617	-3.509916	2.50773972756
100.286735	-3.487976	1.97844292623
100.270854	-3.466036	1.54829827212
100.254975	-3.444095	1.24650890167
100.239095	-3.422154	1.02075889883
100.223217	-3.400213	0.744370082471
100.207339	-3.378271	0.497863172856
100.191462	-3.35633	0.314712176425
100.175586	-3.334387	0.185654468311
100.159711	-3.312445	0.124665962906
100.143836	-3.290502	0.136656309364
100.127962	-3.268559	0.192301962578
100.112089	-3.246616	0.293416301041
100.096217	-3.224672	0.444535790843
100.080345	-3.202728	0.533183963283
100.064474	-3.180784	0.512322942128
100.048604	-3.15884	0.549679086389
100.032734	-3.136895	0.664461966935
100.016865	-3.11495	0.833627562199
100.000997	-3.093004	0.796442072546
99.985129	-3.071059	0.603798113338
99.969262	-3.049113	0.485336716529
99.953396	-3.027167	0.444213572278
99.937531	-3.00522	0.429387320699
99.921666	-2.983274	0.350777346443
99.905802	-2.961327	0.296513424239
99.889938	-2.93938	0.29559069544
99.874076	-2.917432	0.348981327036
99.858213	-2.895484	0.397614310954
99.842352	-2.873536	0.292819127762
99.826491	-2.851588	0.192319574886
99.810631	-2.82964	0.129798152193
99.794771	-2.807691	0.0929308586989
99.778912	-2.785742	0.0461904961853
99.763054	-2.763793	-0.00782498446208
99.747196	-2.741843	-0.0348389439377
99.731339	-2.719893	-0.0233162960432
99.715482	-2.697943	0.0281878744287
99.699627	-2.675993	-0.0286401052458
99.683771	-2.654043	-0.0834615220452
99.667917	-2.632092	-0.087629711333
99.652062	-2.610141	-0.0463215842551
99.636209	-2.58819	0.0127006135145
100.467235	-3.691538	0.344302969909
100.451346	-3.669601	0.567730633644
100.435458	-3.647664	0.843270567097
100.419571	-3.625726	1.18131293579
100.403684	-3.603788	1.40809349112
100.387799	-3.58185	1.48586448255
100.371914	-3.559912	1.66004368035
100.35603	-3.537973	1.95974806113
100.340147	-3.516034	2.38736098969
100.324264	-3.494095	2.37614814689
100.308382	-3.472155	1.81555306217
100.292502	-3.450215	1.37849527233
100.276621	-3.428275	1.07932350596
100.260742	-3.406334	0.861643030268
100.244864	-3.384393	0.581516852822
100.228986	-3.362452	0.332372598871
100.213109	-3.34051	0.147035097224
100.197232	-3.318568	0.0149472401054
100.181357	-3.296626	-0.0504161611248
100.165482	-3.274684	-0.0440932821741
100.149608	-3.252741	0.00511242888687
100.133734	-3.230798	0.10015424232
100.117862	-3.208855	0.242563403528
100.10199	-3.186911	0.327365227905
100.086118	-3.164968	0.321712726113
100.070248	-3.143023	0.370683647114
100.054378	-3.121079	0.503528598466
100.038509	-3.099134	0.718364067099
100.022641	-3.077189	0.672495307411
100.006773	-3.055244	0.451399779281
99.990906	-3.033299	0.324603015464
99.975039	-3.011353	0.283559328623
99.959174	-2.989407	0.276328355915
99.943309	-2.96746	0.182349895829
99.927444	-2.945514	0.120536386601
99.911581	-2.923567	0.115612032527
99.895718	-2.90162	0.166528656098
99.879855	-2.879672	0.212777201675
99.863994	-2.857725	0.100266805891
99.848132	-2.835777	-0.00676600024995
99.832272	-2.813829	-0.0728406058095
99.816412	-2.79188	-0.109008048046
99.800553	-2.769931	-0.151069072029
99.784695	-2.747983	-0.196983534569
99.768837	-2.726033	-0.215907601451
99.752979	-2.704084	-0.202736368608
99.737123	-2.682134	-0.175024079192
99.721266	-2.660184	-0.203849144081
99.705411	-2.638234	-0.242403314204
99.689556	-2.616284	-0.243656108565
99.673702	-2.594333	-0.201587678002
